ncols	240
nrows	66
xllcorner	268962
yllcorner	5401914
cellsize	100.000000
NODATA_value	-1.000000
24.83	25.07	26.36	27.40	27.12	26.95	26.58	25.34	23.90	22.66	22.15	22.69	24.18	26.00	27.39	27.90	27.60	26.25	24.35	24.52	27.95	31.30	31.80	30.42	27.75	24.16	21.39	18.80	16.29	15.65	16.50	18.50	20.06	19.48	18.78	18.67	18.50	18.47	17.90	17.89	19.96	22.21	23.69	24.94	26.63	29.20	30.69	29.09	26.95	28.30	32.03	35.14	38.13	39.93	42.44	43.63	40.64	36.80	35.87	37.47	45.57	66.08	76.81	66.31	42.49	37.63	37.47	34.14	30.42	26.99	24.66	22.87	19.93	17.43	17.31	18.21	19.04	17.76	15.07	14.03	14.04	12.61	9.71	7.13	5.67	4.93	4.31	3.66	3.82	3.88	3.85	4.39	5.52	6.13	6.63	8.79	11.88	14.18	15.28	16.01	17.97	19.83	21.25	23.93	26.15	28.43	35.23	38.91	34.44	28.56	27.01	29.73	33.57	33.25	33.79	44.04	53.55	53.73	43.11	31.16	22.39	17.06	20.56	26.56	26.17	22.85	19.97	17.89	19.71	28.11	34.38	33.07	29.80	27.82	27.97	29.58	31.06	32.96	32.99	31.36	33.19	34.96	32.66	30.94	30.51	29.56	27.94	29.36	31.52	27.98	22.27	17.78	15.33	14.46	13.97	14.78	16.83	18.74	20.08	21.06	21.32	21.25	21.32	21.57	22.17	22.77	23.33	24.00	25.16	27.97	29.59	29.87	31.16	30.27	31.44	36.89	36.52	33.69	33.98	35.32	36.74	37.23	35.80	34.53	34.56	34.66	34.52	34.35	34.20	32.55	27.73	22.08	17.79	16.60	18.02	19.99	21.29	22.03	23.18	27.26	37.48	51.03	55.16	49.66	42.52	35.06	32.11	32.09	32.83	33.81	34.63	36.07	38.15	40.26	40.51	39.78	39.51	38.80	36.53	31.80	27.85	26.75	26.24	24.73	22.51	21.42	22.87	25.58	26.55	25.59	24.88	23.96	23.17	23.58	23.84	23.14	22.30	21.78	21.70	21.77
25.71	25.08	25.31	26.25	26.11	26.40	26.58	25.64	24.35	22.44	20.54	20.64	22.41	23.84	24.63	25.29	25.77	26.09	24.97	22.82	24.12	28.70	31.06	30.54	28.87	26.23	23.72	21.18	17.57	14.83	14.42	16.35	18.88	19.13	18.29	18.04	18.62	19.83	19.81	18.75	18.73	20.35	22.29	23.23	23.60	25.54	28.87	29.45	28.15	28.70	30.25	31.96	35.57	37.50	39.68	42.40	40.33	36.89	35.88	35.25	37.42	48.88	67.80	74.88	62.51	46.19	41.98	36.69	30.49	27.73	24.93	22.14	17.90	15.83	15.08	16.08	18.28	18.04	15.91	14.79	14.55	13.76	12.10	9.93	7.74	6.23	5.14	4.05	3.60	3.64	4.03	4.41	4.74	5.77	6.32	7.11	9.27	12.28	14.05	14.63	16.28	18.11	19.58	22.56	24.72	27.51	34.84	38.66	33.88	28.46	26.86	28.68	33.29	33.56	33.34	41.77	54.18	58.58	51.10	39.47	27.10	18.25	19.60	23.58	23.87	22.31	19.54	16.85	18.14	24.44	30.41	31.10	29.22	28.49	29.33	29.76	30.13	32.51	32.66	30.25	30.91	31.93	31.09	29.98	29.10	29.05	28.78	29.77	31.00	29.15	26.03	22.56	19.10	17.13	15.39	14.68	15.64	17.43	19.05	20.37	21.08	21.14	21.23	21.22	21.31	21.82	22.44	22.68	23.69	26.81	29.58	31.42	33.11	32.21	33.15	37.24	36.00	33.09	33.36	34.17	36.30	38.08	36.88	35.29	34.57	32.69	30.46	30.81	33.22	35.06	33.49	28.77	22.87	18.27	17.50	18.56	20.17	20.50	20.70	24.41	33.39	48.32	54.92	51.12	45.93	41.01	37.04	35.05	34.75	35.40	35.96	36.42	37.58	40.17	43.44	44.27	41.86	40.66	40.75	37.89	34.06	32.04	29.68	27.88	26.25	23.89	23.16	24.97	25.35	23.51	23.37	23.13	22.42	22.86	23.34	22.80	21.87	21.32	21.42	21.61
28.26	27.59	26.90	26.72	26.13	25.94	25.84	25.04	24.09	22.43	20.21	19.59	21.37	23.59	24.63	24.64	24.28	24.68	25.01	23.00	21.74	25.10	29.19	29.80	28.75	27.38	25.65	23.55	20.29	16.81	14.73	15.02	17.19	18.13	17.96	17.82	18.45	20.56	21.79	21.18	20.14	19.93	21.18	22.69	22.81	23.37	26.48	27.80	27.79	30.20	31.65	32.68	36.17	37.26	38.43	41.44	40.53	37.72	36.65	35.35	35.44	41.02	54.09	70.84	72.12	56.74	46.31	37.90	27.98	27.00	25.98	23.03	19.27	17.17	16.40	16.42	18.25	18.35	16.67	15.98	15.64	14.29	12.45	11.01	9.07	7.29	6.38	5.21	4.18	3.93	4.46	4.71	4.54	5.23	6.38	7.28	8.72	11.23	13.54	14.72	16.11	17.59	18.59	20.65	22.77	25.57	34.72	39.26	34.36	30.20	28.88	29.25	32.69	33.45	33.37	39.47	50.91	60.57	58.88	47.88	33.86	21.17	20.56	23.08	22.91	22.59	20.52	17.50	18.26	23.00	27.06	28.05	27.53	27.86	29.32	30.02	30.09	31.48	31.69	29.88	30.03	30.70	30.24	29.44	28.67	28.51	28.51	29.21	29.32	27.98	26.73	24.42	21.27	19.25	17.47	15.92	15.77	16.88	18.37	19.72	20.61	20.82	21.08	21.40	21.34	21.47	22.20	22.66	23.57	25.91	28.47	31.15	33.48	32.82	33.57	38.04	37.03	33.43	32.67	32.72	35.03	38.09	38.00	36.06	34.03	31.33	27.66	26.34	28.43	31.79	33.54	32.36	27.75	21.28	18.66	18.25	19.54	20.46	20.39	21.92	28.46	43.63	53.65	51.91	46.69	43.51	40.33	37.03	35.01	34.49	34.42	34.52	35.01	36.29	40.68	45.84	45.70	43.12	43.24	41.65	37.20	34.38	31.48	28.37	27.58	25.90	23.94	25.30	25.47	22.33	22.11	22.63	22.27	22.53	22.99	22.62	21.50	20.86	21.16	21.45
28.16	29.31	29.76	28.04	26.52	26.05	25.48	24.27	23.48	22.29	20.59	19.50	20.28	22.88	25.02	25.21	24.21	23.85	24.25	23.46	21.84	22.60	26.18	28.23	28.07	27.36	26.36	24.78	21.97	18.83	16.13	14.83	15.59	16.23	16.47	16.83	17.43	19.52	21.66	22.52	22.34	21.37	20.95	21.85	22.27	22.28	24.38	25.26	25.44	29.98	32.82	34.05	37.49	38.65	39.25	40.88	40.29	38.42	37.41	35.82	34.40	36.84	44.39	59.81	72.52	70.83	59.29	45.71	30.98	26.78	28.20	26.28	21.36	18.90	18.80	18.39	18.53	18.55	17.12	16.32	16.82	15.91	13.08	11.02	9.72	8.33	7.64	6.88	5.86	5.23	5.32	5.18	4.73	4.94	5.97	7.16	8.54	10.42	12.47	13.96	15.47	16.82	18.00	19.51	20.70	22.85	31.01	38.40	35.70	31.23	29.42	28.79	30.48	30.80	30.51	36.22	44.09	56.64	63.34	55.85	40.66	25.08	22.17	23.50	22.76	22.92	21.70	18.98	18.80	21.91	24.66	25.56	26.28	27.25	28.36	29.76	30.91	31.26	30.58	29.29	29.01	29.83	29.75	28.45	28.25	28.75	28.96	29.14	28.26	27.26	26.75	25.44	22.95	20.71	19.37	18.17	17.14	17.26	18.24	19.36	20.20	20.34	20.48	21.16	21.63	21.74	22.21	22.53	22.81	23.91	25.64	28.31	31.85	32.36	33.12	37.97	38.64	35.82	34.08	33.44	35.62	38.81	39.79	37.54	32.77	29.16	25.48	21.41	22.02	25.14	27.33	28.90	27.62	22.67	19.49	18.17	18.42	19.73	20.25	20.56	22.85	33.52	49.43	52.21	45.93	41.75	39.45	36.39	33.42	32.18	31.66	31.92	32.51	31.97	33.85	40.50	45.35	45.78	45.96	45.11	40.07	35.69	31.81	27.63	27.08	26.91	25.62	26.50	26.58	23.83	23.24	23.74	23.73	23.61	23.87	23.93	22.78	21.53	21.24	21.31
25.84	27.75	30.11	29.15	26.78	26.07	25.58	24.09	23.33	22.50	21.03	19.70	19.33	21.08	24.11	25.16	24.29	23.70	23.05	21.92	21.07	21.27	22.91	24.61	25.56	25.63	25.12	24.12	21.65	19.02	16.97	15.45	14.83	14.26	14.00	14.24	14.82	16.95	19.33	20.83	22.04	21.98	21.23	21.61	22.14	22.36	23.85	24.15	23.95	28.15	31.77	33.54	36.51	38.48	40.26	41.54	39.89	37.99	37.50	36.31	34.91	35.08	37.43	45.81	61.17	72.14	73.56	63.94	43.36	28.99	29.36	31.53	26.17	20.47	20.19	19.83	18.92	19.10	18.04	16.58	17.11	17.27	15.21	12.08	9.92	8.97	8.76	8.36	7.25	6.42	6.20	5.96	5.57	5.44	5.94	6.77	7.67	9.11	11.01	12.43	14.30	15.84	17.39	20.13	20.46	21.19	27.75	34.63	33.77	29.67	27.46	27.26	28.65	28.14	26.71	31.48	35.99	46.37	62.60	62.32	46.97	29.91	24.45	23.79	21.80	22.22	22.32	20.61	19.89	21.16	22.54	23.41	25.04	26.97	27.75	28.97	30.96	31.32	30.31	29.54	28.81	28.88	29.67	29.24	29.32	30.28	30.93	30.43	28.84	28.62	28.57	28.06	26.71	23.48	21.03	19.77	18.56	17.92	18.28	19.21	20.17	20.42	20.10	20.33	20.90	21.21	21.42	21.43	21.41	21.85	22.62	24.80	29.56	31.51	32.85	36.96	38.98	38.04	37.01	36.11	37.99	41.39	42.75	39.49	30.76	25.99	22.72	17.74	17.67	19.54	20.26	21.76	22.85	20.25	17.53	16.78	17.13	18.11	18.66	18.93	19.13	23.69	42.53	52.22	47.14	39.88	36.74	33.96	30.43	28.56	27.38	27.59	29.04	28.40	27.55	30.89	37.16	41.58	45.07	47.59	45.04	40.19	35.28	30.24	28.55	28.24	28.08	28.80	27.80	24.49	23.69	23.87	23.91	23.87	24.02	24.62	24.23	22.88	21.80	21.44
27.32	27.57	29.20	29.87	27.83	26.67	26.00	24.37	23.46	22.95	22.00	20.80	19.66	20.16	22.89	24.58	24.44	24.31	23.00	20.29	18.73	19.34	20.69	21.25	22.38	23.58	23.70	22.85	20.46	17.98	16.81	16.34	15.69	14.15	12.69	12.23	12.63	14.72	17.11	18.67	20.55	21.30	20.89	21.10	21.92	22.70	23.94	24.00	23.48	26.17	29.52	32.47	35.56	37.21	39.73	42.80	41.51	38.83	38.28	37.14	36.53	37.23	37.07	39.09	46.24	57.12	70.64	76.23	63.76	39.25	29.09	31.40	31.11	25.60	23.87	21.76	19.14	19.04	18.71	17.41	17.51	17.88	17.04	14.31	10.55	8.36	8.04	8.24	7.92	6.73	6.10	6.02	6.10	6.17	6.31	6.65	7.10	8.03	10.11	11.97	13.75	15.17	16.46	20.53	21.69	21.46	26.96	32.16	31.45	28.42	25.61	25.40	28.34	28.09	26.64	30.04	32.42	38.94	58.80	66.02	52.53	33.35	27.19	25.41	22.01	21.29	22.36	22.34	21.52	21.36	21.52	21.83	22.97	25.73	27.79	28.72	30.21	30.37	29.39	28.99	28.52	27.53	27.57	28.35	29.53	30.82	32.04	31.41	28.98	28.75	28.89	28.41	28.04	25.36	21.96	19.95	18.50	17.93	18.39	19.16	19.90	20.37	20.12	19.97	20.33	20.85	21.18	21.13	21.29	22.02	22.53	23.98	27.60	29.40	30.90	34.82	37.35	37.57	38.24	38.14	40.39	45.66	47.83	42.65	31.14	24.42	21.51	18.78	18.01	17.84	17.06	16.73	16.74	15.61	15.36	15.87	16.69	17.76	18.49	19.30	19.44	21.47	36.01	50.60	50.19	40.83	35.84	32.79	27.89	25.24	23.71	23.36	24.74	24.87	23.38	24.02	28.02	32.05	37.80	44.92	47.70	44.99	38.68	33.46	31.26	29.89	29.53	30.98	30.24	25.25	22.59	21.60	21.34	21.38	21.32	22.12	22.74	22.39	21.73	21.48
30.01	29.15	29.14	29.95	28.74	27.47	26.66	25.20	23.93	23.14	22.72	22.26	21.01	20.42	21.90	23.31	23.78	24.54	23.77	20.67	18.07	17.29	17.88	18.81	20.04	21.81	23.13	22.84	20.22	16.89	15.60	16.08	16.51	15.55	13.44	11.90	11.87	13.15	14.85	16.91	19.08	20.06	19.82	19.46	19.91	21.28	22.95	23.13	22.33	23.66	25.66	28.64	33.84	36.52	38.52	42.57	43.04	40.79	39.77	38.36	37.57	39.04	39.23	38.39	40.25	43.97	54.28	71.32	77.33	63.13	37.04	31.45	30.63	29.26	28.77	25.95	21.87	20.01	19.66	18.76	18.58	18.81	18.25	16.92	13.45	9.72	8.06	7.50	7.74	7.12	5.60	5.17	5.78	6.12	6.15	6.38	6.86	7.35	8.73	10.97	13.07	14.10	14.59	17.71	20.76	21.49	25.48	29.84	29.26	27.15	24.39	23.58	27.85	29.01	28.62	31.33	32.59	37.58	53.96	66.34	57.31	38.06	31.14	28.49	25.03	22.79	23.16	24.28	23.31	22.21	22.03	22.02	21.84	23.67	27.02	29.54	30.82	30.45	29.72	29.45	29.44	29.06	28.06	28.35	30.21	31.62	33.00	32.60	29.48	28.19	28.26	27.83	28.02	26.95	24.02	21.47	18.98	17.55	17.84	18.69	19.34	19.82	19.87	19.75	20.15	20.98	21.71	21.81	21.94	22.64	22.82	23.59	26.43	27.48	28.27	32.59	34.81	33.99	34.67	35.41	38.83	47.74	53.27	47.98	34.54	24.55	21.13	20.72	20.07	18.37	16.69	15.16	13.23	12.11	13.40	14.86	15.78	16.94	18.25	19.68	20.50	22.57	31.98	47.07	51.96	43.45	37.33	33.59	27.53	25.16	23.38	21.94	22.35	22.16	20.36	19.92	21.66	23.81	28.39	35.52	43.04	47.01	42.89	35.35	32.04	30.23	29.03	30.65	31.77	28.08	23.71	21.10	20.17	19.98	19.40	19.57	20.49	21.14	21.33	21.38
31.81	30.22	28.96	29.46	28.91	27.93	27.42	26.43	25.03	23.87	23.13	23.08	22.43	21.42	21.82	22.53	22.98	24.10	24.12	22.05	19.68	17.22	15.79	16.44	18.00	19.67	21.69	23.18	21.79	17.61	14.74	14.52	15.41	15.78	14.62	12.84	12.09	12.60	13.57	15.43	17.68	18.64	18.71	18.39	18.00	18.82	21.30	22.40	21.35	21.21	21.82	23.08	28.48	34.22	37.46	41.63	42.93	41.87	41.35	39.83	38.84	40.03	40.70	39.76	39.41	39.05	42.04	53.94	70.79	76.04	64.57	47.80	35.46	30.18	31.45	30.81	27.59	25.42	24.30	22.85	21.24	20.30	19.71	19.05	17.25	13.87	11.23	8.96	7.77	7.54	6.37	5.14	5.59	5.78	5.93	6.57	7.23	7.52	7.65	8.50	10.84	12.45	13.21	15.73	18.30	20.24	23.67	27.24	28.35	27.71	25.38	24.27	27.65	29.29	30.04	32.39	33.99	38.18	49.38	63.82	60.22	42.55	35.81	32.76	28.70	26.91	26.40	27.17	26.11	23.99	23.53	23.95	23.43	23.31	25.97	30.09	32.52	32.10	31.85	32.90	34.21	35.43	35.85	35.60	35.37	35.01	35.09	34.85	32.61	30.49	29.84	29.19	29.04	28.60	26.72	24.65	21.80	18.67	17.60	18.19	19.09	19.63	19.81	19.67	19.79	20.47	21.27	21.62	21.93	22.47	21.78	21.35	24.63	26.29	26.86	31.64	33.67	31.30	29.84	30.10	33.78	44.89	55.39	53.53	39.84	26.72	21.19	21.48	22.02	20.16	18.19	16.51	13.69	11.43	11.95	13.21	14.40	15.69	17.28	18.95	19.79	22.28	31.58	45.49	52.72	45.93	39.37	35.36	29.12	27.82	25.92	22.82	22.14	21.47	19.37	17.90	17.75	19.31	21.99	24.16	31.45	42.29	44.41	37.74	32.29	29.60	27.26	28.16	30.33	28.87	26.09	23.32	21.54	21.17	20.45	19.94	20.33	20.91	21.20	21.28
34.21	32.01	29.40	28.87	28.22	27.49	27.69	27.38	25.94	24.71	23.77	23.51	23.51	22.88	22.58	22.58	22.71	23.82	23.94	22.42	21.05	18.59	15.94	15.35	16.10	17.30	18.83	21.51	22.88	20.18	15.99	13.87	13.89	14.62	14.73	13.91	12.98	12.69	12.91	14.17	16.56	17.92	18.13	18.08	17.84	18.10	20.09	22.32	22.41	21.43	21.03	21.54	24.54	29.32	34.33	40.17	41.92	41.44	42.30	41.62	41.07	42.10	42.20	41.63	41.14	39.33	38.71	42.28	52.61	67.80	73.96	67.42	52.18	37.06	32.33	31.45	29.52	27.30	25.79	25.03	24.00	22.43	21.84	21.41	19.67	17.28	14.86	12.69	10.58	9.25	8.20	6.53	5.91	5.90	6.08	6.70	7.42	7.89	7.88	7.76	8.77	10.93	12.63	15.26	17.87	19.60	21.93	24.41	27.18	28.92	27.50	26.04	27.69	29.22	30.68	32.69	34.53	39.62	47.96	61.09	61.59	44.85	36.92	34.11	29.90	28.19	28.16	29.46	29.15	26.42	24.45	24.35	23.56	22.58	23.42	26.84	30.59	31.59	31.53	33.16	35.18	36.57	37.64	38.62	39.42	39.42	38.40	36.73	34.64	33.32	32.26	30.69	29.89	29.30	27.85	26.24	23.93	20.75	18.53	18.36	19.27	19.95	20.15	19.97	19.72	19.89	20.48	20.61	20.93	22.23	22.21	21.48	23.46	25.18	26.69	31.74	34.90	33.26	30.70	29.58	32.44	41.61	52.85	56.19	46.26	31.83	23.30	21.61	22.87	22.05	20.11	18.71	15.97	12.86	12.09	12.62	13.99	15.83	17.67	19.63	19.96	21.54	32.72	46.41	54.40	48.91	40.82	35.98	30.49	29.68	28.50	24.50	22.89	22.48	21.05	19.02	17.37	17.58	19.03	19.55	22.65	32.60	40.47	38.94	34.22	30.94	27.54	26.77	27.60	26.78	25.69	23.89	21.86	21.17	20.63	20.13	20.22	20.49	20.84	21.07
35.98	34.16	31.53	29.91	28.17	26.90	27.31	27.68	26.57	25.43	24.53	23.89	24.02	24.17	23.84	23.20	22.79	23.81	24.09	22.45	21.08	18.95	16.38	15.43	15.13	14.99	15.53	17.76	20.88	20.97	17.79	14.80	13.60	13.56	13.75	13.64	13.16	12.43	11.84	12.37	14.65	16.52	17.13	17.24	17.34	17.77	18.98	20.98	22.66	22.33	20.50	19.89	22.41	24.63	28.07	37.98	40.90	39.31	40.75	41.32	41.82	43.72	43.63	42.19	41.89	40.81	38.95	38.88	41.73	50.04	62.52	69.95	66.53	53.35	40.57	33.07	30.33	28.73	25.50	23.69	23.75	22.91	22.37	23.25	22.18	19.36	17.46	15.58	13.87	12.52	10.99	8.99	7.55	6.68	6.34	6.01	6.44	7.18	7.82	8.13	8.76	10.27	12.00	14.40	17.04	19.15	20.59	21.64	24.01	27.76	28.80	27.90	28.43	29.56	31.47	33.42	33.93	39.20	47.52	59.34	64.81	51.51	38.61	33.79	29.67	27.13	26.82	29.69	31.32	28.96	26.36	25.38	24.26	23.52	24.11	25.94	28.91	30.41	29.59	28.94	29.70	30.57	30.88	32.24	34.94	37.88	40.08	38.83	34.72	33.12	32.61	30.52	29.20	28.70	27.79	26.72	24.84	22.10	19.94	19.19	19.57	20.20	20.48	20.29	19.88	19.81	20.19	20.14	20.31	21.97	23.26	23.24	23.94	24.40	25.70	30.94	35.25	35.57	33.57	31.48	33.38	40.12	48.06	54.66	51.56	38.96	28.41	24.07	24.61	24.86	23.29	21.79	19.16	15.75	13.84	13.53	14.41	15.83	17.40	19.64	19.99	20.47	29.16	44.17	55.49	53.21	43.95	37.95	32.98	31.41	30.76	27.48	25.92	25.64	24.86	23.34	20.23	17.90	18.35	18.03	18.13	23.79	32.20	35.89	35.50	33.34	30.56	28.97	27.63	25.44	24.23	22.84	21.31	20.80	20.35	19.78	19.61	19.63	20.06	20.48
36.81	35.04	32.83	31.64	29.51	27.46	27.36	27.75	27.41	26.86	25.94	24.88	24.58	24.90	24.90	24.13	23.31	23.76	24.29	23.26	21.50	18.93	16.23	15.63	15.27	13.78	13.20	14.56	17.30	19.04	17.85	15.52	13.80	12.94	12.54	12.40	12.63	12.29	11.53	11.63	13.31	15.00	15.64	16.14	16.23	16.50	17.75	18.75	20.37	22.05	20.15	17.84	19.94	21.84	23.33	33.64	39.69	37.89	36.60	37.21	39.49	43.31	44.30	42.31	40.81	40.14	39.13	38.24	37.79	39.99	48.04	59.22	66.37	64.85	56.76	45.82	36.20	34.18	31.09	24.75	22.73	21.77	20.49	22.09	23.15	20.91	18.49	15.93	13.80	12.81	12.12	10.83	9.07	7.59	6.55	5.87	5.98	6.55	7.29	7.93	8.65	9.86	11.36	13.67	16.37	18.75	20.87	21.85	23.10	26.61	29.52	30.32	30.89	31.10	32.71	35.28	33.83	35.44	44.53	55.97	66.78	63.12	47.75	37.92	32.11	28.03	26.30	29.54	33.30	33.47	33.23	33.95	34.60	35.38	36.33	35.89	33.92	31.52	27.79	24.04	23.36	24.12	24.30	25.27	26.53	29.30	35.49	38.30	34.62	31.78	31.52	29.88	28.22	27.28	26.76	27.07	26.03	23.23	21.15	20.06	19.88	20.34	20.83	20.95	20.62	20.32	20.34	20.15	20.27	21.73	23.44	23.90	24.16	24.21	24.72	28.69	33.08	34.64	34.17	32.67	34.49	39.67	43.76	49.65	51.80	45.26	36.02	30.71	30.02	29.61	27.69	26.04	23.52	19.79	17.23	15.91	15.62	15.75	16.50	18.47	19.17	19.05	24.01	38.10	52.85	55.42	48.82	43.65	40.35	37.89	35.65	32.79	30.98	29.99	29.00	28.33	25.40	21.09	19.85	18.26	16.82	18.97	22.74	27.27	31.15	31.99	30.85	30.70	29.88	26.49	24.19	22.31	21.09	21.08	20.59	19.89	19.62	19.38	19.43	19.71
37.81	35.76	33.12	32.29	30.75	28.73	28.09	27.89	27.85	28.17	27.72	26.45	25.67	25.64	25.52	24.92	24.04	23.80	23.92	23.47	22.43	19.81	16.45	15.74	15.66	13.98	13.00	13.50	14.91	16.46	16.63	15.57	14.22	13.11	12.36	11.86	12.23	12.45	11.80	11.60	12.89	14.49	14.82	15.16	15.31	15.33	17.01	18.30	19.22	21.17	20.74	18.77	19.02	20.20	21.20	26.82	35.71	38.26	36.26	35.12	37.80	42.42	44.53	42.99	40.45	38.53	38.17	38.73	38.05	37.38	40.55	47.54	55.80	62.00	63.23	58.82	50.18	43.14	39.37	31.98	25.83	22.07	18.97	19.09	20.52	20.29	18.42	15.46	13.09	11.65	10.93	10.42	9.20	7.84	7.25	7.05	7.01	7.12	7.45	7.63	7.50	8.46	11.06	14.14	17.30	20.25	22.83	24.24	25.03	26.91	29.10	30.89	32.70	32.70	33.53	37.22	35.74	33.40	39.15	47.61	60.45	66.49	57.19	43.78	35.68	30.17	27.67	30.17	34.38	36.74	38.13	39.45	40.17	40.44	40.98	41.60	40.26	35.84	28.87	22.57	20.73	21.23	21.73	22.81	22.84	23.17	27.90	33.35	33.28	31.29	30.98	30.17	29.18	27.59	25.83	26.40	26.63	24.32	21.83	20.49	20.11	20.39	20.89	21.28	21.30	21.13	21.13	20.89	20.69	21.47	23.11	24.07	24.61	25.13	25.61	28.44	31.97	33.45	33.57	32.74	35.29	40.21	41.80	44.73	47.65	45.31	39.96	34.00	31.67	31.08	28.91	27.23	24.82	21.24	19.29	17.92	16.85	16.33	16.62	18.43	20.04	20.21	22.65	32.11	46.57	53.24	49.37	44.44	41.88	40.48	38.34	34.79	32.76	31.06	29.57	29.69	28.02	24.21	22.05	19.78	17.65	18.14	18.78	20.19	24.55	27.04	25.76	27.00	28.20	26.16	24.18	21.48	19.04	19.08	18.87	18.20	18.65	19.46	19.76	19.84
38.56	36.49	33.90	32.95	31.52	30.05	29.34	28.57	28.18	28.66	29.01	28.23	27.37	27.02	26.52	26.13	25.38	24.81	24.05	22.77	22.62	21.15	17.46	15.96	15.55	14.26	13.71	13.91	14.20	14.73	15.26	15.28	14.85	13.91	13.03	12.23	11.80	11.88	11.39	10.82	11.78	13.69	14.64	14.94	14.53	14.16	15.36	17.22	18.89	19.99	20.01	19.63	19.51	19.35	20.20	23.63	29.31	34.66	36.33	35.94	37.81	42.29	44.82	43.94	41.18	37.66	35.74	36.81	37.88	37.23	37.78	40.62	45.44	51.80	56.95	59.21	57.89	54.55	49.60	42.49	35.84	28.17	22.53	19.88	18.58	18.52	18.08	15.88	13.73	12.52	11.23	10.22	9.57	8.36	7.75	7.81	7.93	8.15	8.60	8.80	8.52	9.09	11.76	14.96	17.72	20.42	22.73	24.37	25.44	26.72	27.24	27.85	31.07	31.76	31.97	36.49	37.49	34.60	35.76	39.70	48.66	61.42	59.98	47.92	38.51	32.85	30.37	31.00	33.02	34.32	34.31	34.46	33.62	31.67	32.83	37.41	41.36	41.26	34.77	25.31	21.70	21.46	21.36	22.59	22.43	21.06	22.74	26.44	28.20	28.56	28.82	28.44	28.56	27.97	25.71	25.10	25.66	24.53	22.53	21.27	20.72	20.63	20.77	20.93	21.08	21.27	21.59	21.52	21.13	21.40	22.74	24.05	25.25	26.69	27.97	30.59	33.28	33.98	34.01	32.86	35.51	41.43	42.98	44.31	44.33	40.43	37.29	33.13	30.13	29.23	27.68	26.35	24.30	21.09	19.28	18.18	17.25	16.73	16.88	18.42	20.44	21.11	22.38	28.09	40.77	50.06	48.57	42.98	38.99	38.18	36.93	33.68	32.46	31.33	29.73	29.68	28.57	26.14	24.36	21.48	19.39	20.22	19.97	18.98	21.99	23.99	22.53	23.54	24.85	23.72	22.97	20.61	16.74	16.42	16.95	16.47	16.95	18.52	19.69	19.99
39.13	36.63	34.22	33.76	32.04	30.70	30.55	29.81	28.99	29.17	29.55	29.53	29.45	28.86	27.77	27.49	27.21	26.78	25.33	22.57	22.21	22.11	19.22	16.83	15.51	14.15	13.95	14.43	14.51	14.43	14.60	14.73	14.77	14.27	13.45	12.78	11.92	11.22	10.70	10.09	10.40	12.27	14.66	16.11	15.49	14.35	14.25	15.26	17.73	19.51	19.37	19.32	20.13	20.12	20.73	23.46	25.63	27.57	30.86	33.97	37.22	42.20	44.91	44.71	42.51	38.03	34.37	33.92	34.99	35.74	36.37	37.05	39.33	43.57	47.61	50.42	52.11	54.59	54.76	50.15	44.73	38.29	31.39	27.19	22.97	20.28	19.53	17.88	15.38	13.84	12.80	11.45	10.56	9.44	7.77	7.41	7.86	8.58	9.88	11.20	11.59	11.55	12.27	14.04	15.64	17.13	19.27	20.68	22.20	25.18	25.94	25.12	27.79	29.15	28.57	32.44	36.10	34.98	34.51	35.74	39.80	52.60	56.47	50.65	42.21	36.19	33.17	30.70	29.90	29.56	27.80	27.36	26.45	24.79	26.08	30.41	36.29	41.75	40.81	31.76	25.50	23.98	23.03	23.77	23.33	20.89	20.76	21.84	22.46	23.80	24.49	24.11	24.73	25.28	24.21	23.47	23.76	23.17	21.94	21.30	21.00	20.86	20.87	21.01	21.23	21.47	21.66	21.37	20.90	21.23	22.49	23.81	25.07	26.56	28.39	31.64	34.33	34.77	34.90	33.28	34.50	41.46	45.65	47.71	43.94	35.84	32.51	30.72	29.11	28.10	27.17	26.54	24.90	21.61	18.99	17.60	17.16	17.06	17.25	18.33	19.84	20.89	23.14	28.33	39.12	48.95	49.72	44.24	38.54	36.41	35.21	32.98	32.90	33.00	32.39	32.45	30.77	28.08	27.34	24.53	21.47	22.42	23.15	22.68	23.89	25.23	24.59	24.66	24.86	23.42	22.79	21.35	17.41	16.03	16.77	17.07	16.97	17.55	18.68	19.32
40.07	36.86	33.61	33.47	32.10	30.56	30.57	30.08	29.25	29.34	29.28	29.07	29.76	29.98	28.56	27.82	28.14	28.36	26.45	22.62	21.54	21.91	19.95	17.59	15.92	14.29	14.01	14.30	14.40	14.62	14.66	14.48	14.30	14.02	13.57	13.31	12.88	11.79	10.87	10.25	9.87	10.66	13.49	17.14	18.15	17.03	15.74	15.29	16.87	19.06	19.67	19.60	20.30	20.92	22.52	25.35	26.05	26.10	27.85	29.49	33.95	41.00	44.28	44.66	43.72	39.41	35.13	33.49	33.10	33.79	35.52	35.88	36.65	39.59	42.26	43.60	44.05	47.00	51.53	51.45	48.42	43.75	37.09	32.69	28.31	23.89	21.86	19.83	16.83	14.09	12.59	11.71	10.74	9.65	7.85	6.77	7.47	8.76	10.23	11.91	12.91	12.53	11.55	11.61	12.75	14.63	17.32	18.69	19.66	22.70	25.10	24.61	25.44	26.79	26.51	29.50	34.10	34.30	33.93	33.87	35.37	44.52	49.81	49.27	44.99	40.12	36.01	30.87	28.47	27.95	25.92	24.95	24.44	23.29	24.01	25.86	28.79	35.41	40.62	37.64	30.91	27.30	26.50	26.55	24.80	21.75	20.74	20.28	19.84	21.23	21.87	21.37	21.85	22.53	22.53	22.84	23.36	22.82	21.37	20.44	20.35	20.56	20.82	21.22	21.66	22.00	22.21	21.94	21.36	21.48	22.47	23.56	24.66	24.92	25.59	29.09	32.67	33.96	34.22	32.12	32.18	39.06	46.81	51.64	45.45	34.35	30.35	29.09	29.11	29.16	29.08	29.31	27.79	23.72	19.36	17.07	16.87	17.63	18.32	19.16	20.24	21.36	24.27	28.56	37.67	48.52	51.73	47.57	41.19	37.08	34.43	31.87	32.70	33.61	33.48	34.87	34.05	30.76	29.65	27.41	23.46	22.84	23.74	24.82	26.05	26.93	27.19	26.99	26.64	25.53	24.40	22.74	19.78	18.08	17.58	17.42	17.32	17.39	18.13	18.91
41.38	37.80	33.16	32.14	31.66	30.71	30.20	29.41	28.79	28.96	28.85	28.28	28.59	29.70	29.03	27.93	28.59	29.65	27.76	23.50	22.04	21.82	19.72	17.92	16.59	15.04	14.76	14.39	13.67	13.94	14.43	14.41	14.19	13.86	13.57	13.58	13.44	12.55	11.53	10.71	9.84	9.41	10.89	15.51	19.19	20.03	18.75	17.01	17.00	18.36	19.10	19.75	20.40	20.35	22.42	27.08	28.63	28.81	30.68	29.55	30.59	39.46	43.17	43.54	43.55	40.25	36.42	33.86	32.46	32.40	34.08	35.17	35.42	37.15	38.86	39.50	39.26	40.84	45.68	48.05	47.47	44.89	39.40	35.22	30.77	26.03	23.55	21.10	17.84	14.48	11.76	10.80	10.65	10.00	8.85	7.52	7.66	8.46	8.88	9.82	11.19	11.96	11.63	11.08	11.60	13.33	15.91	17.42	18.31	20.64	23.05	23.44	23.54	24.31	24.28	26.52	32.27	33.99	34.18	34.06	35.08	42.48	45.03	44.25	42.98	41.80	39.75	34.22	30.91	29.75	27.14	25.37	24.77	24.40	24.91	24.73	24.70	28.66	34.55	36.67	33.52	29.62	28.99	29.40	27.17	23.17	21.78	20.67	19.90	21.48	22.22	21.71	21.95	22.48	22.91	23.68	24.15	23.82	22.52	20.63	19.85	20.21	20.73	21.08	21.36	21.71	22.14	22.18	21.64	21.42	21.82	22.67	24.20	24.01	23.48	25.92	28.55	30.86	32.46	30.06	28.98	35.46	45.17	53.05	48.69	37.05	31.93	30.21	30.37	30.28	29.52	30.33	30.35	27.35	22.96	19.05	17.40	17.72	18.58	19.71	20.63	21.42	24.41	28.01	35.21	46.20	52.26	51.97	47.32	42.44	38.41	34.01	34.27	35.27	34.56	35.64	36.45	34.55	32.46	29.96	25.78	23.29	23.05	24.39	26.33	27.49	27.78	27.65	27.85	27.99	27.42	25.30	22.17	20.62	19.39	18.00	17.25	17.26	18.22	19.28
43.03	39.31	33.44	30.86	31.08	31.74	30.99	29.42	28.89	29.13	28.91	28.28	27.83	28.47	28.61	28.22	29.05	30.49	29.84	26.91	25.53	24.33	21.14	19.34	18.16	16.70	16.34	15.42	13.66	13.18	13.68	13.78	13.63	13.49	13.31	13.44	13.28	12.42	11.63	11.06	10.37	9.37	9.21	11.63	16.50	20.39	20.97	19.28	18.38	18.97	18.70	18.93	20.45	20.05	20.31	25.30	28.86	30.75	34.41	33.86	33.86	40.50	43.32	43.11	42.79	40.53	37.73	34.49	32.13	31.63	32.62	34.18	35.13	35.87	36.48	36.60	36.49	37.85	41.30	43.33	43.82	42.88	39.71	36.95	32.87	27.93	25.61	23.13	19.70	16.80	13.59	11.17	11.13	11.36	10.92	9.87	8.39	7.74	7.38	7.43	8.82	10.68	11.98	12.33	12.36	12.99	14.66	16.00	17.13	19.56	21.48	22.23	23.31	24.17	24.34	25.20	29.25	32.64	33.58	33.75	36.55	43.56	44.19	39.06	36.08	38.05	40.48	37.96	34.71	32.93	30.69	28.39	26.27	26.49	28.21	26.99	24.65	26.01	29.21	32.31	33.40	31.91	30.56	30.52	29.99	27.40	25.59	23.79	22.21	23.52	24.61	24.42	24.25	23.83	23.37	23.68	23.76	23.13	22.26	20.63	19.55	19.91	20.67	21.04	21.06	21.12	21.38	21.42	21.13	21.01	20.76	21.30	23.49	23.93	23.34	24.51	25.48	27.19	30.86	28.93	26.27	31.40	40.88	50.82	50.27	41.53	34.32	29.65	28.79	27.87	25.52	26.27	27.29	26.03	24.28	21.12	18.20	17.37	17.78	19.42	20.54	21.16	24.85	27.82	32.05	41.64	48.47	52.47	51.90	47.58	43.48	39.15	37.49	37.80	36.90	36.30	36.76	36.46	34.99	32.96	30.24	27.30	25.39	25.39	27.19	29.24	29.63	29.10	30.19	31.40	31.32	29.49	25.72	22.93	21.54	19.86	18.22	17.43	18.49	19.77
44.46	40.39	34.02	30.84	30.72	32.03	31.66	29.87	29.25	29.51	29.39	28.66	27.56	27.01	26.66	26.80	27.88	29.22	29.41	28.27	28.04	27.34	23.97	20.95	19.40	17.96	17.52	16.64	14.41	13.18	12.90	12.45	12.22	12.30	12.52	13.07	13.18	12.50	11.70	11.14	11.03	10.73	10.13	10.63	13.35	18.03	21.27	20.85	19.65	20.04	19.48	18.66	19.93	20.38	19.66	21.35	24.19	27.49	33.75	36.18	37.86	43.61	45.69	44.57	43.06	41.28	39.38	36.00	32.89	31.70	32.05	33.59	35.60	36.55	36.44	36.20	36.21	37.64	40.01	40.73	40.82	39.72	37.17	36.39	33.76	28.80	26.53	24.35	20.96	18.54	16.04	13.33	12.13	11.91	11.97	11.39	9.80	8.20	7.77	7.70	8.50	10.24	12.06	13.45	13.89	14.15	15.34	16.53	17.68	20.03	22.14	23.17	24.43	25.04	25.80	26.85	28.12	30.18	31.73	32.83	36.56	44.69	45.06	36.85	31.13	32.95	38.24	40.67	40.31	39.01	37.83	35.43	30.32	28.10	30.94	31.56	28.25	26.80	27.35	29.34	32.30	34.27	34.29	32.98	32.21	31.50	30.35	27.95	25.03	24.81	25.48	25.57	25.14	23.89	22.72	22.75	22.86	22.35	21.91	20.91	19.88	19.69	20.19	20.85	21.01	20.88	21.07	21.30	21.38	21.82	21.52	21.39	23.16	24.21	24.48	25.33	25.02	25.96	30.12	28.32	24.87	28.47	37.52	48.25	49.48	42.63	34.64	27.90	25.93	24.98	23.41	23.74	23.32	21.34	21.21	20.10	18.07	17.36	17.62	19.07	20.24	20.62	23.81	26.97	30.06	36.83	42.40	48.67	53.29	50.80	44.44	38.06	35.23	35.62	36.13	35.99	35.58	35.49	34.81	33.22	31.53	29.99	28.11	26.94	28.11	31.07	33.30	33.38	33.55	33.95	33.67	32.32	29.04	25.66	22.77	20.32	19.35	18.62	19.16	20.27
45.54	40.87	33.99	32.09	32.31	32.19	31.39	30.41	29.85	29.92	30.30	29.68	27.84	26.04	24.66	24.47	25.70	26.92	26.68	25.80	26.73	27.76	25.49	21.81	19.83	18.50	18.05	17.61	15.75	14.46	13.34	11.31	10.55	10.84	11.43	12.43	13.05	12.93	12.29	11.38	10.79	11.04	11.03	10.94	11.91	14.52	19.47	21.21	20.48	20.71	20.57	19.46	19.18	19.68	19.49	19.33	20.17	22.54	28.81	32.91	35.69	43.68	48.12	47.09	44.47	42.26	40.78	37.77	34.32	32.23	31.45	32.28	34.67	36.60	37.13	36.78	36.28	37.77	39.86	39.71	39.59	38.21	34.58	33.86	32.46	28.45	26.47	24.32	21.64	19.33	16.90	15.46	14.34	13.02	12.45	12.35	11.51	9.97	9.23	9.18	9.27	10.19	11.92	13.37	14.32	15.12	16.31	17.54	18.59	20.21	22.45	24.39	25.88	25.47	25.31	27.23	27.95	27.85	29.91	33.41	38.16	46.09	45.01	36.55	31.24	31.32	34.58	39.09	43.79	47.45	49.75	49.12	44.63	39.15	38.56	41.29	41.63	37.93	33.66	33.23	35.62	38.68	41.04	40.94	38.90	37.08	35.16	31.64	27.66	25.75	25.10	25.25	25.29	23.70	22.51	22.69	22.54	22.17	22.25	21.50	20.13	19.44	19.49	20.13	20.73	20.96	21.35	21.90	22.46	23.38	23.56	23.30	24.15	24.90	26.40	28.05	27.17	28.17	31.60	29.44	26.02	28.16	36.96	48.57	49.59	42.23	34.45	26.57	23.91	23.50	22.63	23.60	23.28	20.63	20.18	20.08	18.91	18.37	18.24	18.70	19.61	19.81	21.77	25.52	29.30	33.83	36.84	42.37	51.90	55.35	47.97	37.23	31.99	30.93	32.10	33.84	34.05	34.09	33.86	31.94	29.95	29.44	29.37	29.34	30.32	32.45	35.25	37.11	37.12	36.60	35.98	34.50	31.87	29.44	25.68	21.85	20.99	20.38	20.31	21.05
46.23	41.08	33.53	33.44	36.13	34.49	31.37	31.48	31.57	31.02	31.58	31.52	29.13	25.94	23.90	23.30	23.97	25.21	24.87	23.32	24.14	26.20	25.44	22.68	20.70	19.66	19.10	18.69	17.72	16.88	15.38	11.75	9.65	9.65	10.46	11.60	12.59	12.92	12.44	11.66	10.47	9.99	9.95	9.74	10.14	12.12	16.57	20.05	20.79	20.91	21.07	20.51	19.38	18.83	19.00	18.99	19.00	20.46	24.56	28.66	31.89	40.52	48.69	49.83	46.78	43.64	41.99	39.56	36.15	33.26	31.17	30.93	32.55	34.48	36.41	37.13	36.67	38.00	39.48	38.87	38.71	37.74	34.34	32.61	31.12	28.25	26.74	24.66	23.04	22.10	19.39	16.98	16.35	15.21	13.72	13.19	12.81	11.74	10.75	10.64	10.45	10.53	11.62	13.10	14.19	15.38	16.48	17.39	18.31	19.63	21.31	23.52	26.75	26.69	24.78	26.55	27.44	25.60	27.22	31.77	39.57	46.93	44.02	35.89	33.11	32.39	30.73	30.78	34.97	40.66	45.85	50.57	52.79	51.24	48.62	49.54	52.32	53.19	50.46	45.10	41.40	40.31	41.23	43.23	43.34	42.22	40.78	36.89	32.36	29.46	26.84	25.75	26.32	24.64	22.64	22.75	22.12	20.86	20.74	20.47	19.58	19.10	19.10	19.50	20.37	21.26	22.05	22.80	23.63	24.61	24.97	25.27	26.15	26.08	27.69	30.81	31.06	32.18	34.47	32.67	29.46	29.86	36.81	49.69	52.33	43.63	35.36	25.70	22.22	22.54	21.76	22.64	23.17	21.29	19.87	19.67	19.64	19.43	18.72	18.41	19.14	19.93	21.58	24.33	28.63	32.69	34.07	36.41	46.35	57.37	55.80	44.09	34.26	28.93	28.17	30.35	31.59	32.56	33.84	32.58	30.34	29.94	30.44	31.30	31.85	31.73	32.13	34.24	36.25	37.22	37.94	37.21	35.09	33.76	30.99	25.98	22.92	21.17	20.73	21.20
46.19	41.11	33.54	33.24	37.73	36.60	31.37	31.18	32.33	32.14	32.79	33.67	31.38	26.53	23.68	22.59	22.20	23.53	24.18	22.64	22.54	24.25	24.74	23.35	21.52	20.64	20.08	19.48	19.14	18.87	17.41	13.58	10.12	8.82	9.18	10.40	11.66	12.49	12.10	11.24	10.28	9.55	9.21	9.20	9.43	11.03	15.18	18.74	20.66	21.16	21.42	21.61	20.47	19.05	18.82	19.10	19.15	20.56	24.04	26.69	29.78	37.29	47.12	52.45	51.08	46.72	44.18	42.10	39.04	35.67	32.46	31.42	31.84	32.27	34.06	35.69	36.62	38.55	39.59	39.14	38.73	37.40	34.50	32.58	31.51	29.41	27.54	24.96	23.00	23.13	21.59	18.19	16.86	15.72	14.18	13.43	13.22	12.97	12.13	11.54	11.55	11.78	12.49	13.87	14.88	15.58	16.36	16.88	17.59	19.24	20.49	21.53	25.92	28.65	27.09	27.21	27.46	24.38	24.75	30.51	39.72	46.91	42.54	33.57	32.77	33.79	30.08	24.95	22.69	22.20	23.23	31.06	42.35	47.58	46.28	44.58	46.20	49.99	53.65	50.47	42.32	36.37	34.32	36.66	39.00	40.14	42.06	41.06	37.44	34.90	31.01	27.55	27.25	25.79	23.49	23.08	22.29	20.48	19.49	19.24	19.00	18.72	18.80	19.45	20.46	21.45	22.38	23.12	23.81	24.86	25.43	26.16	27.86	27.60	27.72	30.83	32.63	34.03	35.99	35.61	33.04	32.23	35.52	47.25	55.61	49.46	38.98	28.55	22.41	21.92	22.05	22.37	22.42	21.01	19.15	18.28	18.49	18.93	18.84	18.79	19.38	20.18	21.81	24.61	28.61	31.95	33.47	34.70	40.28	53.15	60.44	55.55	44.02	32.61	27.27	27.73	28.38	29.13	31.97	32.50	30.33	29.50	28.74	27.93	28.35	27.84	26.66	28.29	31.39	33.72	36.05	37.03	35.79	35.14	33.85	28.79	23.73	21.18	20.64	20.89
45.32	41.67	35.25	33.71	38.01	37.60	32.31	30.78	31.41	32.49	34.17	35.38	33.81	28.06	23.66	21.78	20.50	21.47	23.27	23.00	22.25	22.94	24.12	24.36	22.94	21.67	20.89	19.98	20.13	20.71	19.29	15.51	11.98	9.23	8.06	8.84	10.44	11.96	12.36	11.45	10.51	10.24	9.95	9.93	10.01	10.88	13.85	17.26	19.87	21.12	21.63	22.49	21.76	19.28	18.15	18.43	18.52	19.81	23.41	25.14	26.93	33.19	41.67	51.30	55.62	52.28	48.09	45.62	42.96	39.66	35.79	33.99	33.26	32.21	32.59	33.43	34.99	37.73	39.43	40.04	39.85	38.09	34.70	31.73	30.54	29.50	27.84	25.24	22.61	22.19	21.43	19.35	18.15	16.51	14.73	14.15	13.83	13.43	12.75	12.01	12.04	12.28	12.70	13.35	14.13	14.49	14.96	15.34	16.08	17.97	19.41	20.34	23.93	29.60	31.28	32.10	31.20	26.29	25.75	32.35	42.21	47.30	39.65	29.45	29.93	33.10	30.35	23.98	19.14	15.87	15.01	18.85	29.13	38.54	39.03	35.57	35.19	38.78	46.42	51.87	47.90	38.57	31.72	30.97	32.10	33.02	36.93	38.88	37.22	36.22	33.99	30.57	28.78	26.71	24.58	23.82	22.86	20.93	19.31	18.48	18.23	18.22	18.47	19.28	20.27	20.96	21.46	22.05	22.99	24.45	25.42	26.38	28.92	29.54	28.90	30.04	31.14	32.66	34.69	35.53	34.86	34.12	34.19	40.37	53.19	56.42	47.88	37.31	30.23	26.76	26.40	26.35	25.78	24.16	22.20	19.99	18.05	17.49	18.13	19.20	20.24	21.05	22.20	24.79	28.50	30.99	31.79	32.83	35.30	43.54	56.25	61.12	55.59	43.12	32.39	29.91	28.68	27.59	29.87	30.83	28.93	27.57	25.08	22.67	23.70	24.44	23.89	24.88	27.36	29.65	31.92	33.85	34.15	34.35	34.78	31.65	25.83	22.15	21.09	20.95
43.23	41.15	37.02	35.83	38.48	38.04	34.32	32.37	30.89	31.82	35.49	36.71	35.20	30.44	24.65	21.62	19.52	19.58	21.69	22.87	22.57	22.39	23.22	24.97	25.23	24.07	23.12	21.78	21.46	22.59	21.92	18.83	15.82	12.04	8.64	7.93	8.96	10.78	12.22	12.33	11.52	11.19	10.81	10.41	10.42	10.85	12.34	14.81	17.91	19.96	21.08	23.03	23.63	20.58	18.19	17.96	17.47	17.98	21.80	23.67	23.83	29.45	35.39	43.30	54.67	57.35	53.43	49.36	46.65	44.19	40.91	38.52	36.69	34.83	34.02	33.49	34.03	35.88	37.93	40.00	40.77	39.68	36.72	32.60	29.22	27.60	26.82	24.97	23.28	22.77	21.70	20.11	19.69	18.66	16.67	15.54	14.89	14.32	14.04	13.77	13.21	12.81	12.50	12.25	12.72	13.36	13.73	14.15	14.82	16.57	18.62	19.80	22.02	26.90	31.83	36.14	36.54	31.36	28.42	33.02	44.09	48.09	37.33	27.05	27.93	31.81	29.44	21.39	16.98	14.51	13.33	15.10	21.18	30.04	31.78	29.79	30.14	31.98	37.83	48.31	54.48	50.22	38.07	30.73	28.34	28.08	31.34	33.37	32.67	33.00	32.51	30.73	29.61	26.95	24.16	23.62	22.74	20.83	19.26	17.99	17.41	17.52	17.74	18.15	18.93	19.74	20.19	20.51	21.53	23.73	25.40	26.18	28.35	29.41	29.11	30.04	30.41	31.19	32.99	33.94	35.21	35.32	34.29	35.58	43.72	53.49	52.82	46.20	41.66	38.66	36.04	33.96	32.07	28.78	25.10	21.57	18.51	17.09	17.28	18.42	20.19	21.96	22.82	23.95	26.99	30.23	30.90	31.31	33.51	36.64	45.52	56.55	58.73	51.36	40.30	36.33	34.82	32.43	32.49	31.38	28.47	26.26	23.10	21.23	22.31	23.45	23.52	24.14	25.96	27.79	29.00	30.38	31.68	32.81	34.33	33.83	29.44	23.71	21.23	20.80
41.54	39.62	36.23	35.58	36.79	36.27	34.47	33.27	31.31	31.41	35.52	37.32	35.18	31.20	27.02	23.00	19.38	18.15	19.31	20.82	21.59	21.45	21.33	23.18	24.96	25.05	24.86	24.13	23.22	23.32	22.78	20.80	18.90	15.97	11.78	9.03	8.17	9.06	10.63	11.57	11.36	10.97	10.75	10.29	10.36	11.13	12.37	14.27	16.75	18.94	20.37	22.86	25.36	23.35	20.23	19.20	17.98	17.58	21.44	24.09	23.66	27.01	31.16	35.82	47.32	57.40	59.03	55.23	50.90	47.97	45.38	42.88	40.17	37.88	36.36	34.84	34.24	34.56	35.54	38.07	40.44	40.62	38.67	35.30	30.15	25.82	24.67	23.37	22.31	22.64	21.51	19.61	19.38	18.91	17.58	16.37	15.72	15.66	15.46	14.76	14.03	13.71	13.30	13.05	13.35	13.82	14.19	14.74	15.71	17.52	19.04	19.75	20.61	22.56	26.04	31.35	36.87	35.48	32.16	33.07	43.92	49.63	37.41	27.58	27.75	31.65	30.25	20.22	15.63	14.09	12.78	14.29	19.62	25.81	26.48	25.84	28.38	29.16	29.74	36.74	48.58	56.19	51.23	39.80	32.39	29.76	31.22	32.26	31.25	31.28	30.87	29.09	28.61	26.76	23.53	23.24	23.29	21.80	20.30	18.66	17.36	16.81	16.68	16.84	17.34	18.28	19.17	19.45	20.00	22.03	24.07	24.76	26.35	27.24	26.96	29.03	31.04	32.46	34.00	34.45	36.07	36.70	35.72	35.54	38.21	45.58	49.80	47.00	43.79	42.03	39.54	37.19	35.24	32.05	26.67	20.86	17.70	17.03	17.18	17.72	18.81	20.56	22.93	24.14	25.34	28.78	30.86	31.49	34.42	35.97	40.07	50.04	55.80	52.93	43.61	37.91	36.53	34.87	35.00	34.03	30.42	27.29	23.93	22.21	23.01	23.73	23.72	24.43	26.13	27.80	28.35	28.38	29.06	30.32	32.03	33.09	31.14	24.83	20.57	20.06
42.55	40.02	36.99	37.41	36.29	33.74	32.74	32.62	32.06	33.05	35.83	37.18	34.86	30.86	29.27	26.87	22.14	19.30	18.24	18.57	19.59	20.04	19.92	20.98	22.93	23.78	24.10	24.63	25.25	25.29	23.41	21.16	20.07	18.34	15.44	12.15	9.29	8.05	8.60	9.55	9.95	10.00	10.12	9.88	9.80	10.69	11.82	13.62	15.73	17.56	18.53	20.33	24.69	24.98	22.25	20.64	19.09	17.63	19.14	23.24	24.08	25.18	27.71	30.31	37.56	49.00	58.71	61.61	58.52	53.88	50.40	47.38	43.58	40.52	38.55	36.46	35.26	34.81	34.48	35.65	38.74	40.79	39.79	37.39	32.01	25.35	23.03	21.72	20.81	21.64	21.15	19.52	19.49	19.03	17.78	16.98	16.00	15.08	14.47	13.87	13.28	13.11	13.19	13.37	13.69	14.27	14.76	15.12	16.21	18.48	19.70	19.87	20.24	20.41	21.43	24.37	28.85	32.49	33.83	34.51	45.30	52.15	39.55	29.04	27.23	30.26	32.21	24.26	17.04	14.05	12.86	14.13	18.90	23.78	23.69	23.06	26.43	28.23	26.48	27.20	35.30	48.39	54.89	51.56	44.50	38.52	36.71	36.82	36.04	35.31	34.62	32.61	30.54	28.60	25.71	24.52	24.48	23.42	21.90	20.12	18.45	17.19	16.39	16.16	16.31	16.94	18.05	18.66	18.94	20.12	21.74	23.09	25.32	26.59	26.07	27.67	30.58	32.83	35.00	35.78	37.00	37.85	36.88	36.25	37.59	42.38	45.82	43.35	39.99	38.50	37.07	36.13	35.24	33.81	30.10	23.03	17.51	16.22	16.29	16.56	16.73	17.50	21.11	23.89	24.48	26.72	29.24	30.51	33.76	35.81	38.83	47.22	53.25	52.69	45.03	37.01	33.62	31.86	32.80	33.29	31.40	29.40	26.06	23.12	23.29	23.74	22.95	23.24	24.72	26.51	27.83	27.65	27.34	28.20	29.71	31.21	31.56	26.71	20.79	19.99
43.86	41.38	39.30	40.95	39.41	33.53	30.54	30.74	31.50	33.87	36.51	36.94	35.32	31.94	30.55	29.97	27.61	25.59	22.27	19.43	19.29	19.78	20.10	20.64	21.97	23.04	23.04	23.20	24.92	27.36	26.72	23.24	21.38	19.82	17.98	16.03	13.05	9.68	8.12	8.06	8.45	8.97	9.32	9.27	9.19	9.63	10.15	11.31	13.53	15.72	16.66	17.71	21.81	24.13	23.02	21.74	20.33	18.41	17.85	20.57	23.56	24.69	25.04	25.41	28.47	35.27	47.37	58.62	62.37	60.69	57.12	53.85	49.99	45.62	42.28	39.38	37.40	36.24	35.58	35.61	37.27	40.26	41.25	39.58	34.67	27.39	24.06	22.11	20.90	21.74	21.69	20.43	20.33	20.39	19.42	18.21	16.64	14.65	13.30	12.73	12.37	12.36	12.54	12.63	12.94	13.95	14.99	15.26	15.55	17.27	18.86	18.93	19.17	19.14	19.52	22.40	23.67	25.64	33.34	38.16	46.80	53.28	41.80	29.44	25.18	27.13	30.94	28.27	21.07	14.41	12.16	13.42	17.40	21.29	21.14	20.78	23.63	26.09	24.85	23.55	26.82	36.97	46.89	50.57	50.02	46.47	41.92	40.00	39.78	40.06	40.33	39.82	37.83	34.27	30.57	27.89	25.90	24.60	23.38	21.72	20.42	19.12	17.51	16.49	16.33	16.78	17.74	18.58	18.81	19.52	20.98	22.53	25.01	26.84	26.42	26.99	29.48	31.29	33.61	35.45	37.28	38.80	37.82	36.82	38.37	42.54	44.07	40.06	36.54	34.74	33.44	33.92	33.82	33.10	32.25	27.88	20.72	16.92	15.28	14.43	14.06	14.76	17.86	21.46	23.54	25.97	27.99	29.01	31.74	33.89	37.48	46.07	52.15	52.64	47.29	39.25	33.28	29.99	30.31	29.94	27.88	27.33	25.38	22.38	22.16	22.67	21.80	21.93	22.70	23.56	25.42	26.24	26.16	26.93	28.13	29.38	31.20	29.08	22.84	21.11
42.56	41.85	39.87	41.16	42.49	35.88	28.98	27.20	28.11	31.48	34.86	35.61	35.05	33.22	31.33	30.36	28.92	28.38	25.98	21.85	20.59	20.68	20.61	20.51	20.94	22.31	23.01	21.98	22.10	25.46	28.05	26.52	23.75	21.46	19.47	18.36	16.85	14.01	10.43	8.02	7.13	7.72	8.70	8.81	8.68	9.26	9.89	10.42	12.08	14.66	16.39	17.26	19.94	22.19	22.47	22.52	22.01	20.55	19.35	19.99	22.48	25.37	25.39	24.05	25.67	29.32	36.28	47.78	56.80	61.12	61.05	58.86	56.67	52.67	47.27	42.80	39.66	36.95	35.67	36.03	36.54	38.50	41.21	41.51	37.54	31.60	27.38	23.93	21.49	21.28	20.78	19.34	18.98	19.54	19.62	18.82	17.49	16.00	14.27	13.00	12.70	12.87	12.94	12.93	13.14	13.82	14.59	14.84	14.67	15.61	17.38	17.81	18.62	18.66	18.61	23.27	24.35	24.12	33.43	42.14	50.33	52.03	40.02	27.51	23.54	24.93	27.10	27.60	24.86	18.16	13.31	13.28	16.82	20.04	19.72	19.46	22.12	24.15	23.29	22.33	24.64	32.34	39.66	41.84	44.73	47.01	44.70	40.99	39.35	39.75	40.89	41.97	42.51	40.17	35.77	32.91	29.79	26.78	24.99	22.89	21.66	20.42	18.30	16.68	16.42	16.98	17.72	18.48	18.97	19.63	20.93	22.42	24.53	26.63	26.87	27.26	29.61	31.26	32.42	34.04	36.83	40.22	40.09	38.99	40.54	44.05	44.75	39.54	34.61	31.47	28.49	29.83	31.26	30.04	30.15	28.73	23.67	18.96	15.42	13.41	12.67	13.28	15.97	19.58	22.53	26.49	28.70	28.82	30.45	32.28	35.84	44.95	51.76	52.76	49.17	42.64	36.30	32.01	31.31	29.39	25.41	24.22	22.33	19.96	20.34	21.16	20.91	21.63	22.31	22.62	24.32	25.62	25.95	26.88	27.90	28.24	29.85	30.06	25.55	22.83
40.16	41.89	40.97	40.59	43.72	39.74	30.82	25.69	26.19	29.69	31.96	32.62	32.86	32.06	30.86	29.89	28.57	28.36	26.64	22.76	21.23	21.37	21.53	20.91	20.11	21.15	22.91	22.33	20.83	22.44	26.18	27.83	26.54	23.80	21.47	20.35	19.28	17.93	15.25	10.73	7.33	7.00	8.00	8.62	8.63	9.28	10.31	10.77	11.47	13.54	16.09	17.56	19.52	20.69	20.45	21.16	22.04	21.83	20.87	20.10	20.37	23.77	25.82	24.48	24.66	27.09	30.78	39.22	48.02	55.39	59.89	60.35	60.28	58.66	53.87	48.45	43.47	38.81	35.95	35.87	36.21	36.86	39.35	41.35	38.95	34.32	30.96	26.96	24.08	22.86	20.98	18.67	17.63	17.83	18.49	18.66	18.10	17.27	16.12	15.19	14.75	14.37	14.18	14.21	14.23	14.39	14.93	15.25	15.36	16.50	18.25	18.26	18.94	19.33	19.76	25.67	27.01	26.68	35.17	46.47	54.87	49.30	32.50	23.97	22.34	22.76	23.52	23.91	24.56	21.32	15.94	13.83	15.68	18.59	18.72	18.34	20.33	21.90	21.36	21.19	23.66	29.37	34.98	36.40	37.05	41.05	43.17	41.32	38.08	36.46	36.83	38.11	40.78	41.84	39.12	36.58	34.12	30.29	27.30	24.45	22.51	21.31	19.14	16.83	16.06	16.49	17.15	17.72	18.36	19.02	19.93	21.38	23.60	25.57	26.49	27.16	28.81	30.79	31.73	31.88	34.07	39.66	41.45	40.96	43.21	46.77	46.52	39.82	34.35	30.15	24.72	25.62	27.50	25.62	25.26	24.73	21.45	18.06	15.10	13.55	13.02	13.39	15.54	18.92	21.80	25.50	28.70	29.12	29.63	31.20	34.64	43.50	51.07	52.85	50.33	45.49	40.04	35.67	34.57	33.37	29.59	26.40	22.02	18.80	19.53	20.48	20.08	20.95	21.98	22.39	23.85	25.09	25.22	25.93	27.05	26.96	27.54	28.57	26.33	24.22
37.86	40.95	42.15	41.78	43.77	41.81	35.50	28.55	27.55	29.50	29.94	30.07	30.34	29.85	29.21	28.92	28.81	29.35	28.34	25.04	22.62	21.69	22.35	22.48	20.96	20.98	22.82	23.20	21.69	21.36	23.71	26.90	28.07	26.63	24.75	24.03	23.00	21.76	20.20	16.36	11.31	8.75	8.46	9.03	9.20	9.41	10.40	11.55	11.97	12.55	14.70	17.01	19.30	20.42	19.28	18.97	20.28	21.44	21.83	21.25	19.97	21.15	24.06	24.39	23.86	24.05	25.68	31.67	39.35	46.83	54.32	57.78	60.19	61.45	59.87	56.77	51.32	44.63	40.04	38.17	37.20	36.92	38.35	40.79	40.46	37.56	34.45	30.25	28.16	28.01	25.87	22.54	20.20	18.88	19.03	19.41	19.16	19.10	18.73	17.64	16.71	15.96	15.68	15.65	15.42	15.53	16.71	17.46	17.35	18.02	19.50	19.66	19.80	20.29	22.44	27.62	29.01	31.16	40.72	52.75	57.59	44.59	25.52	21.93	21.32	21.07	21.11	20.87	21.98	21.08	17.77	15.52	15.61	17.06	18.01	18.00	18.59	19.17	18.92	19.56	22.66	26.94	30.28	31.86	32.50	33.93	36.73	38.26	36.60	34.15	32.87	32.89	35.68	38.95	38.42	36.46	35.03	32.29	29.04	26.06	24.10	23.29	21.76	18.98	16.74	16.06	16.41	17.01	17.64	18.35	18.88	19.95	22.60	24.46	25.44	26.76	27.32	28.13	30.25	30.50	31.64	38.36	41.61	41.17	44.62	50.65	49.92	41.16	35.87	30.14	23.94	23.99	24.69	22.77	21.56	19.53	16.00	14.12	13.33	13.17	13.28	13.78	15.23	17.66	20.39	23.42	26.84	28.79	29.41	30.60	34.44	42.49	50.25	52.87	50.57	46.90	43.08	38.57	36.46	36.32	34.36	31.45	25.95	20.34	19.96	20.76	20.25	20.31	20.81	20.75	21.55	22.43	22.36	23.16	24.66	24.70	24.39	24.70	23.89	23.20
35.67	39.07	41.37	41.77	43.09	41.17	37.17	32.10	29.60	29.60	28.88	28.74	28.53	27.63	27.13	26.90	27.14	28.42	28.75	26.98	24.70	22.20	21.38	21.98	21.11	20.59	22.39	23.48	22.34	20.83	20.87	23.71	26.66	26.55	25.07	24.70	24.86	24.54	23.40	20.13	15.32	11.40	9.46	9.46	9.74	9.63	10.16	11.40	12.16	11.94	12.87	15.57	18.82	21.03	20.39	19.08	19.50	21.01	22.59	23.28	22.24	22.20	23.37	24.36	25.01	23.81	22.96	26.55	31.76	38.62	46.93	51.19	55.24	59.42	61.07	62.34	60.96	54.30	46.83	42.35	40.09	38.89	39.24	41.80	43.05	42.23	39.57	32.35	28.29	28.99	28.35	25.95	23.27	20.42	19.80	20.54	20.02	19.28	19.65	19.56	18.71	17.87	17.55	17.33	16.87	16.70	17.09	17.67	17.67	18.15	20.07	21.14	21.34	21.52	24.10	28.62	29.57	32.40	43.06	56.65	60.49	43.57	24.70	21.93	21.32	20.94	20.33	19.84	20.45	19.98	18.13	16.93	16.52	16.65	17.71	18.23	17.92	17.67	17.56	18.35	21.36	25.36	27.83	28.77	29.83	30.49	30.99	32.93	34.12	33.36	31.60	30.22	31.64	34.73	35.71	35.29	34.83	33.07	30.14	27.42	25.57	24.63	23.34	20.90	18.16	16.55	16.44	16.97	17.47	18.03	18.65	19.66	22.16	23.84	24.50	26.52	27.64	27.18	28.73	29.84	30.99	38.55	42.71	41.84	44.28	53.16	55.91	48.49	41.80	33.56	25.72	24.77	24.61	22.93	21.14	18.00	13.62	11.71	11.55	11.98	12.63	13.43	14.51	15.93	18.28	21.72	25.14	27.83	29.66	30.79	34.28	41.78	49.78	53.92	52.27	48.23	45.08	41.05	38.10	37.43	36.28	34.92	30.55	24.53	22.04	21.98	21.83	21.05	20.31	19.70	20.20	20.83	20.64	21.71	23.66	23.91	22.76	21.57	20.64	20.58
34.57	38.57	41.81	41.63	42.94	40.69	35.84	32.42	31.31	30.40	28.76	28.45	27.57	25.56	25.18	24.95	24.38	25.70	26.80	26.16	25.63	23.79	21.14	20.63	20.13	19.48	21.17	23.15	22.87	21.09	19.14	19.89	23.18	24.49	23.29	22.31	22.83	24.42	25.17	22.50	17.39	13.34	10.39	9.75	10.16	10.10	9.96	10.25	11.05	10.98	11.06	12.99	16.36	19.84	20.75	19.43	18.44	19.51	22.13	23.98	23.63	23.16	23.10	23.60	25.31	24.87	22.97	23.96	27.20	31.68	39.16	42.68	45.22	50.97	53.93	57.43	62.54	61.96	54.81	46.79	42.62	40.70	39.54	41.69	44.00	44.42	44.02	37.65	29.35	28.42	28.26	27.12	25.98	22.69	20.88	21.81	22.00	19.92	19.41	20.14	20.40	20.00	19.35	18.56	17.62	16.77	16.44	17.18	18.18	19.51	21.47	22.65	22.91	23.17	25.03	28.45	28.28	28.24	35.99	52.77	65.79	56.37	31.51	23.65	21.82	21.19	20.71	20.20	20.48	19.64	17.98	17.37	17.19	17.10	17.99	18.43	18.00	17.65	17.73	18.27	20.17	23.55	26.16	27.10	27.59	27.71	27.43	27.95	29.57	30.64	30.11	28.74	28.99	30.98	32.24	32.95	33.94	33.55	31.32	28.84	26.95	25.68	24.27	22.12	19.60	17.79	17.41	17.63	17.63	17.45	17.33	17.75	19.55	20.96	21.52	24.38	26.74	26.98	27.85	28.29	29.32	36.06	42.06	42.22	42.36	50.15	57.55	56.68	53.39	45.33	33.07	28.57	27.19	25.97	24.34	20.60	16.52	14.43	12.92	11.89	12.01	12.78	13.68	14.60	16.25	19.49	23.00	25.68	27.96	29.27	31.59	38.48	47.36	55.04	55.74	50.87	46.35	42.16	40.07	38.74	36.79	35.88	33.30	28.38	24.60	22.89	22.53	22.19	21.50	20.90	21.28	21.97	21.90	22.68	24.64	25.59	24.51	22.33	20.44	20.13
33.78	38.98	43.98	43.61	44.03	41.52	34.87	30.35	31.41	31.89	29.56	29.39	28.24	24.90	24.56	24.06	22.34	23.72	25.24	24.85	25.36	25.56	23.60	21.78	20.53	19.53	20.10	21.86	22.94	22.61	20.65	19.12	20.63	22.98	23.12	21.42	20.48	22.21	25.26	24.51	19.77	16.30	12.59	10.15	10.13	10.29	9.88	9.67	10.45	10.76	10.28	10.82	12.81	16.23	18.74	19.02	17.41	16.95	20.07	23.02	23.53	22.57	21.96	22.11	23.53	24.61	23.83	23.60	25.03	27.74	33.30	37.26	38.33	42.10	43.59	44.87	53.31	60.18	58.66	50.62	43.74	40.33	37.46	38.63	41.64	43.32	44.99	41.92	34.29	30.86	29.95	28.85	29.45	28.16	24.79	24.13	24.49	23.54	21.40	20.24	20.36	20.59	19.78	18.35	17.30	16.70	16.93	18.15	19.20	20.10	21.86	23.39	23.44	23.28	24.11	26.38	26.79	24.53	25.69	40.65	66.62	69.16	45.62	28.08	22.41	20.99	20.73	20.43	21.36	20.56	18.58	17.74	17.36	17.34	18.20	18.52	18.18	18.14	18.43	18.89	20.06	22.36	24.47	25.69	26.02	25.15	24.37	24.69	25.31	26.56	27.41	27.05	27.15	27.90	28.19	28.77	30.40	31.55	30.33	27.96	26.54	26.17	25.78	24.36	21.91	19.25	18.00	17.84	17.67	16.98	15.66	14.73	15.62	17.19	18.41	21.32	24.07	25.52	27.81	28.34	28.68	33.24	38.69	41.03	41.03	44.85	52.09	56.25	59.70	59.49	50.73	40.31	34.48	32.07	31.24	27.36	21.36	18.40	16.05	13.34	12.35	12.62	13.49	14.32	15.34	17.82	20.81	23.23	25.55	26.49	28.36	32.95	39.87	52.98	58.85	53.89	46.47	40.76	39.77	39.05	36.25	34.48	32.01	27.83	24.33	22.05	21.26	21.67	22.39	22.77	22.99	23.45	23.74	24.32	25.97	27.67	27.67	25.48	22.73	21.71
32.75	37.66	42.68	44.43	45.62	43.09	35.95	29.05	29.69	31.56	29.74	29.76	29.24	25.62	24.99	23.98	21.20	22.21	24.12	24.05	24.32	25.29	24.80	23.15	21.37	20.37	20.33	20.57	21.48	22.86	22.83	20.89	20.03	21.86	23.52	22.39	20.21	20.46	24.17	25.50	21.13	17.49	14.12	9.94	8.89	9.42	9.74	9.88	10.74	11.53	10.94	10.72	11.94	14.05	16.57	18.46	17.81	16.81	18.32	21.73	24.27	23.66	22.39	22.11	22.66	23.72	24.01	24.34	25.24	27.17	31.58	35.33	37.32	40.63	41.39	40.36	44.73	53.47	58.59	53.98	45.46	39.60	35.13	35.26	38.03	40.65	43.51	42.98	37.06	32.64	31.07	29.36	29.70	30.01	28.08	26.17	25.22	24.69	23.32	21.33	20.15	19.90	19.54	18.93	18.27	17.70	17.71	18.47	19.02	19.26	20.56	22.48	22.25	21.46	22.03	23.34	25.40	25.33	26.23	37.13	60.28	73.47	58.83	36.17	23.46	21.19	20.57	19.56	21.51	21.84	19.93	18.76	17.80	17.24	17.92	18.42	18.31	18.20	18.53	19.38	20.68	22.36	23.51	24.33	24.96	24.53	23.68	23.15	22.75	23.40	24.68	25.34	26.11	26.55	26.22	26.28	26.96	27.97	27.81	25.60	23.49	23.00	23.65	24.18	23.54	20.93	18.02	17.08	17.32	17.37	16.13	14.52	14.59	16.37	18.15	20.23	22.54	24.56	27.62	29.44	29.86	32.29	36.00	39.35	41.53	43.13	45.68	49.05	54.59	61.14	61.14	54.01	45.39	39.15	36.50	32.39	23.45	17.91	15.56	13.72	13.07	13.21	13.84	14.71	15.61	17.55	19.78	21.81	24.60	25.56	27.33	31.36	34.44	47.08	60.43	59.32	49.03	40.10	38.26	38.35	36.19	34.08	30.78	26.12	22.70	20.51	19.75	19.83	20.84	22.18	22.81	22.98	23.31	24.11	25.53	27.56	28.94	27.33	23.55	21.84
34.86	37.80	39.70	42.09	45.21	43.85	37.90	30.59	29.43	30.29	29.08	29.69	29.69	26.96	25.75	24.34	21.11	21.16	23.08	23.73	23.98	24.59	24.35	23.09	20.84	19.75	20.55	20.29	19.49	20.68	22.59	22.30	20.51	21.08	23.47	23.83	21.62	20.26	22.89	26.10	23.29	18.30	15.10	10.92	8.46	8.61	9.45	9.88	10.39	11.29	11.39	11.00	11.83	13.45	15.37	17.45	17.66	17.52	18.44	20.64	24.15	25.09	23.97	22.88	22.37	22.76	22.98	23.57	24.50	25.66	29.07	32.33	34.72	38.91	41.47	41.23	42.44	48.96	58.36	58.47	49.44	41.11	35.32	34.16	35.56	37.56	41.15	42.76	39.20	34.15	31.64	29.19	27.75	27.69	26.94	25.95	24.70	23.70	22.92	21.81	20.35	19.74	20.03	20.01	19.33	18.72	18.68	19.20	19.82	19.86	20.57	22.92	22.85	21.66	22.35	23.81	25.39	26.75	29.72	35.58	51.72	71.67	68.17	46.04	27.48	23.20	21.44	19.64	21.16	22.14	21.30	20.23	19.05	17.58	17.60	18.42	18.68	18.14	18.12	19.28	21.01	22.75	23.13	23.17	23.85	24.56	24.60	23.11	21.63	21.68	22.16	22.67	23.99	24.79	24.54	24.82	25.04	24.85	24.93	23.80	21.22	19.41	18.98	19.78	21.29	21.06	18.28	16.21	16.27	17.42	17.19	15.57	14.62	15.41	17.15	18.62	19.86	22.08	25.55	28.24	29.73	30.96	32.71	36.39	41.16	42.77	42.08	43.10	46.52	52.57	59.07	60.16	54.52	46.09	41.05	36.02	26.21	18.45	15.37	14.14	13.90	13.88	13.82	14.08	14.77	16.25	18.33	20.39	23.23	24.31	25.28	29.51	32.04	39.96	57.26	65.25	58.77	46.15	39.75	37.93	36.86	35.94	32.50	27.73	24.10	20.96	19.94	19.84	20.06	21.12	22.02	21.77	21.40	22.19	23.37	25.02	27.56	27.92	24.06	21.68
38.35	39.37	39.13	40.48	43.29	42.52	38.96	35.25	33.84	32.03	29.39	30.74	31.54	29.35	27.80	26.21	22.85	21.38	22.50	23.61	24.37	25.13	25.11	24.11	20.74	17.84	19.11	20.17	18.59	18.18	20.15	21.82	20.95	20.26	22.28	24.36	23.57	21.19	21.53	25.09	25.71	22.01	18.39	14.84	11.21	9.38	9.33	9.56	9.73	10.39	10.89	10.45	10.58	12.16	14.36	16.62	16.97	17.06	18.24	19.47	21.96	24.29	24.75	23.86	22.32	21.65	21.91	22.33	22.69	23.77	27.09	29.59	30.70	33.78	37.05	39.06	41.27	45.75	56.74	62.06	53.90	43.59	37.57	35.46	34.95	35.15	38.26	41.05	39.46	35.91	33.22	29.80	27.55	26.27	25.25	25.10	24.50	23.57	22.83	21.99	20.77	20.01	20.21	20.27	19.88	19.69	19.74	20.04	20.83	21.34	21.91	24.16	24.96	23.83	24.05	26.37	26.85	27.90	32.47	33.78	42.20	64.91	73.25	59.42	38.45	29.45	25.65	22.84	22.76	22.35	21.89	22.35	21.80	19.49	18.24	18.97	19.39	18.45	18.11	19.14	20.81	22.59	22.98	22.48	22.63	23.31	24.26	23.73	22.12	21.68	21.15	20.48	21.72	22.41	21.77	22.45	23.22	22.81	22.72	22.75	21.58	19.85	17.82	16.23	16.75	18.22	17.73	16.22	15.71	16.70	17.45	16.42	14.67	13.94	15.05	16.64	17.25	18.67	22.60	25.74	27.89	29.58	29.88	33.07	39.74	41.70	39.64	39.13	41.01	45.10	51.74	58.90	60.62	54.37	47.99	42.96	34.58	25.51	19.15	16.85	15.61	14.26	13.41	13.29	13.62	14.48	16.18	18.41	21.18	22.59	23.13	25.34	27.37	32.93	47.66	63.82	66.93	57.14	46.25	40.08	38.13	38.45	36.39	32.09	29.04	25.17	22.30	22.15	22.08	22.01	22.51	22.07	21.08	21.43	22.12	22.78	25.14	27.65	25.58	23.10
39.95	39.10	38.45	40.26	41.39	39.69	37.36	36.64	36.97	35.13	31.27	31.33	32.56	31.32	29.75	28.05	24.62	21.42	20.98	22.13	23.42	24.80	26.00	26.29	22.93	17.65	17.48	19.36	18.69	17.00	17.25	19.28	20.24	19.51	20.13	22.69	24.30	23.23	21.66	22.69	24.42	23.30	20.58	18.01	14.79	11.09	9.51	9.55	9.96	10.47	10.66	10.03	9.50	10.49	12.85	15.60	16.35	16.26	17.48	18.56	19.86	21.74	23.48	24.45	23.41	21.32	20.76	22.03	22.17	22.73	27.23	29.16	28.66	30.51	32.31	34.61	39.38	43.91	54.39	63.02	56.21	44.81	38.82	36.78	35.21	33.62	35.44	38.48	37.89	35.81	34.71	31.94	29.69	28.16	26.23	25.38	24.93	24.28	23.66	22.68	21.30	20.04	19.78	20.65	21.51	21.61	21.09	20.30	20.22	20.95	21.26	22.21	24.12	23.39	22.45	25.27	25.92	26.76	32.76	32.47	33.16	52.89	71.32	65.92	45.88	34.10	29.91	26.04	24.47	23.01	21.09	22.12	23.71	22.09	20.07	20.50	20.87	19.81	19.14	19.60	20.39	21.46	22.34	22.47	22.13	21.57	22.25	22.67	21.73	21.60	21.11	19.88	20.96	21.80	20.70	21.04	22.18	22.57	22.64	22.92	22.95	22.20	20.10	17.15	15.46	15.45	15.75	15.58	15.37	16.03	17.15	17.24	15.88	14.38	14.53	15.87	16.51	17.42	20.51	23.76	26.23	28.75	29.38	31.50	38.36	40.52	38.58	37.66	38.19	41.04	45.52	52.68	61.96	62.40	55.38	49.25	43.08	34.40	24.13	19.30	16.89	14.41	13.20	13.21	13.38	13.59	14.48	16.38	18.92	21.15	22.97	25.20	26.12	29.23	39.33	54.23	66.93	65.02	52.62	42.39	38.64	39.19	38.71	35.63	32.78	28.85	23.93	22.61	22.72	23.20	24.05	23.82	22.75	22.62	22.79	22.70	23.94	26.50	26.39	24.95
41.30	38.48	36.81	39.34	40.71	40.83	40.41	40.47	41.52	40.39	37.29	35.51	34.56	33.72	32.69	30.35	26.76	22.13	19.06	19.62	21.56	23.23	25.35	27.46	26.01	21.22	18.89	19.45	19.53	17.79	16.10	16.71	18.53	19.13	18.97	20.31	22.82	24.37	23.88	22.93	22.81	22.02	20.37	18.95	17.22	13.77	10.76	10.11	10.51	11.31	11.75	10.94	9.37	9.13	10.65	13.43	14.78	15.08	16.68	18.26	19.24	20.24	20.92	22.50	23.32	21.14	19.04	20.44	21.16	20.93	25.70	28.53	27.55	28.42	29.71	30.80	35.17	41.27	53.64	63.53	56.97	45.44	39.21	36.83	34.87	32.23	32.64	35.09	35.11	33.85	33.73	32.50	30.37	28.75	27.07	25.62	24.48	23.67	23.37	22.72	21.66	20.60	20.31	21.04	21.63	21.54	20.71	19.70	19.00	18.64	18.69	19.91	22.13	21.30	18.95	20.10	20.80	21.88	29.82	30.71	29.24	46.05	65.65	66.20	50.32	36.82	32.83	29.41	26.73	24.86	21.92	20.95	22.82	23.43	22.17	22.29	22.78	22.49	21.85	21.25	20.88	20.21	20.84	22.75	22.85	21.04	20.57	20.74	20.50	20.84	20.74	19.92	20.79	22.05	21.73	21.87	22.71	23.44	23.75	23.59	23.62	23.59	22.21	19.85	17.79	16.19	15.23	14.71	14.45	15.03	16.08	16.88	16.56	15.02	14.17	14.82	15.37	15.88	18.12	20.43	22.54	26.03	27.90	30.39	36.56	37.97	35.90	35.11	34.67	35.72	38.47	42.61	53.68	63.41	61.31	53.32	46.84	40.30	29.91	20.69	16.88	14.73	13.47	13.24	13.35	13.31	13.45	14.89	17.05	19.08	21.69	25.02	26.56	27.54	32.60	42.53	59.78	68.06	58.74	44.18	37.21	37.01	37.49	35.71	34.13	30.94	26.30	23.73	22.59	22.87	24.28	24.75	23.98	23.76	23.71	23.32	23.75	25.19	25.98	25.92
40.99	38.30	36.89	38.52	39.90	42.84	46.74	49.57	51.45	50.56	46.92	44.25	41.42	38.47	37.75	35.87	32.40	27.89	21.07	19.09	20.93	22.20	23.90	26.97	27.30	24.45	22.83	22.21	21.81	20.56	17.59	16.13	17.22	18.71	19.00	19.35	21.06	23.40	25.08	25.53	24.33	21.76	19.59	19.01	18.42	16.23	13.50	11.81	11.38	11.95	12.84	12.61	10.54	9.22	9.65	11.77	13.56	14.38	15.91	17.66	19.14	20.74	20.84	20.88	22.20	21.27	18.72	18.57	19.59	19.99	23.28	26.66	26.91	27.02	27.69	28.20	30.04	35.10	51.41	64.46	58.84	46.81	40.32	37.19	34.39	31.38	30.75	30.75	30.26	30.14	29.83	29.09	27.49	26.08	25.65	25.27	23.55	22.08	22.53	22.66	21.91	21.17	20.77	20.89	20.88	20.45	19.68	19.22	18.92	18.54	18.64	20.67	23.93	23.50	21.37	20.59	18.40	18.81	28.09	29.81	29.54	45.19	59.46	63.09	55.90	44.31	38.90	38.17	36.47	33.43	30.18	25.94	23.91	25.34	26.09	25.07	24.52	25.46	26.46	26.11	25.08	21.98	20.43	23.41	24.93	22.42	20.34	19.82	20.10	20.85	20.84	20.33	20.88	21.90	22.49	23.30	23.76	24.24	24.97	24.58	24.00	24.28	23.63	21.75	20.11	18.26	16.36	15.22	14.74	15.04	15.85	16.54	16.41	14.81	13.46	13.75	14.43	14.67	16.09	16.93	17.68	21.63	24.74	28.20	35.09	36.01	32.42	31.18	31.26	30.71	31.03	33.69	42.17	57.16	63.45	58.04	49.69	42.78	33.44	22.81	17.50	15.33	14.09	13.50	13.62	14.02	14.15	14.89	16.54	17.67	19.43	22.59	25.01	25.95	28.93	33.32	46.74	65.26	65.15	51.01	38.17	35.23	35.09	33.71	33.14	30.94	28.51	26.88	24.61	22.60	22.87	23.65	23.39	23.41	23.39	22.77	22.74	23.45	24.43	25.12
37.93	37.30	37.33	37.35	35.88	35.51	39.47	44.76	50.80	55.41	54.47	50.21	45.51	40.28	38.70	37.54	34.96	33.34	27.44	20.97	21.33	21.90	22.45	25.32	26.39	24.46	23.64	24.00	24.20	23.61	20.56	17.27	17.08	18.28	18.85	19.11	20.18	21.88	23.75	25.94	26.30	22.62	18.24	17.47	17.78	16.25	13.90	12.33	11.64	11.69	12.63	13.30	11.73	9.91	9.63	10.97	12.66	13.76	15.12	16.19	17.51	20.33	21.48	21.43	22.21	21.88	20.01	18.90	19.03	20.07	22.78	25.11	26.71	27.35	26.54	26.83	28.11	29.56	44.83	63.83	63.40	51.03	42.68	38.48	34.78	31.85	31.04	28.58	26.85	27.56	27.41	26.60	25.49	23.81	23.40	24.39	23.42	21.11	21.16	21.51	20.99	20.62	19.99	19.75	20.11	20.66	21.19	21.47	21.41	21.24	21.09	22.98	27.81	29.21	28.38	26.05	21.33	21.92	28.60	29.08	30.32	42.37	53.76	59.12	58.17	50.21	42.80	44.49	47.88	46.89	43.60	40.06	36.55	33.43	33.99	31.03	26.40	26.34	28.45	30.28	30.89	27.85	23.36	24.70	27.19	25.09	21.78	20.27	20.09	21.06	21.35	20.52	20.86	21.51	21.78	23.18	24.13	24.27	25.29	25.57	24.99	25.27	25.12	23.51	21.67	19.49	16.53	14.60	14.59	15.79	17.11	17.91	17.68	15.58	13.64	13.80	14.72	15.15	16.20	16.57	16.37	18.82	22.35	25.76	32.08	35.71	33.45	30.81	31.21	31.57	31.22	31.52	36.33	49.51	60.73	62.29	55.47	45.93	35.42	24.84	19.02	15.70	14.31	13.89	14.02	14.92	15.74	16.07	16.94	17.40	18.36	21.40	24.30	25.97	29.20	30.53	37.08	58.62	68.37	59.42	44.15	36.89	34.90	33.52	33.51	31.26	28.44	27.18	25.71	23.54	22.61	22.49	22.13	22.37	22.29	21.34	21.17	21.78	22.67	23.37
33.19	34.66	35.91	34.28	30.42	28.19	28.51	30.94	37.40	47.91	55.80	56.92	51.71	43.95	40.21	38.37	34.82	34.50	30.74	23.27	22.39	22.84	23.27	25.34	25.82	24.20	23.26	23.85	25.18	26.12	23.93	19.32	18.07	18.71	18.86	18.90	19.60	20.95	22.47	25.05	27.37	24.93	19.19	16.47	16.76	15.77	12.74	10.89	10.59	10.97	12.08	13.36	12.40	10.41	9.89	10.45	11.39	12.50	14.26	15.31	16.17	18.98	20.79	21.48	22.56	22.36	20.82	19.46	18.63	19.12	21.57	23.44	25.68	27.96	26.77	26.15	29.07	29.43	36.67	58.61	65.16	56.10	46.75	40.85	36.01	32.88	33.05	30.70	27.42	28.01	28.36	27.64	26.52	23.55	21.64	22.36	21.16	18.20	18.14	19.01	19.05	19.30	19.32	18.81	18.73	19.82	21.34	22.20	22.49	22.61	22.35	23.54	29.56	33.38	35.10	33.50	29.52	30.16	33.04	33.00	34.01	39.84	47.88	54.80	58.21	51.86	40.78	40.57	46.71	51.13	51.73	51.53	52.23	51.46	49.86	45.70	35.94	31.21	33.51	37.98	41.77	41.09	35.36	32.01	31.08	29.17	25.75	22.39	20.95	21.63	22.35	21.46	21.45	22.24	22.10	23.07	24.17	24.09	24.85	25.38	25.08	25.55	25.84	24.86	23.26	21.13	17.77	14.29	12.96	14.20	16.72	18.72	19.36	17.49	14.82	14.29	15.17	15.69	16.38	16.73	16.26	17.10	19.86	22.83	26.82	31.69	33.08	30.63	29.29	29.81	30.18	29.70	31.46	41.34	53.96	62.40	61.50	52.65	40.25	27.99	21.63	17.33	15.42	14.98	15.16	16.13	17.35	17.59	17.63	17.57	18.28	21.14	24.05	26.56	29.72	30.39	32.17	48.52	66.17	65.32	50.70	39.66	35.04	32.83	33.24	32.99	29.86	27.18	25.98	24.87	24.18	23.23	21.99	22.02	21.95	21.05	21.05	21.40	21.55	21.81
29.61	32.51	34.62	30.32	25.18	24.07	23.85	23.09	25.87	33.45	45.93	56.17	59.59	55.02	48.23	43.62	39.53	37.31	33.78	28.46	26.49	26.39	27.28	28.79	27.92	25.37	24.37	24.10	24.77	26.70	26.37	22.01	19.63	19.82	19.73	19.33	19.41	20.15	21.35	23.93	27.52	28.01	23.81	18.80	17.42	17.02	14.20	10.95	10.06	10.82	12.26	14.16	14.34	12.42	11.32	11.07	11.24	11.98	13.85	15.43	16.41	18.95	20.71	21.43	22.70	22.90	21.64	20.18	18.57	17.97	19.56	21.33	23.37	26.79	27.32	26.79	31.24	32.96	36.61	52.48	61.44	57.17	50.49	45.00	39.04	34.03	34.22	33.20	29.66	29.59	30.39	30.33	29.35	26.27	23.25	22.80	20.54	16.94	17.41	18.78	19.37	19.63	19.57	19.19	18.85	18.95	19.29	19.71	20.42	21.66	22.42	23.20	26.49	31.14	35.98	37.71	36.38	35.62	36.05	35.26	35.03	37.24	40.35	45.68	55.32	53.73	39.12	31.31	33.47	40.49	46.63	49.47	52.63	56.39	59.09	57.82	48.96	39.24	39.00	43.22	48.83	53.93	54.61	50.39	43.23	37.23	34.50	30.30	27.19	26.69	26.62	25.62	25.01	25.18	24.58	24.71	25.36	25.30	25.75	25.50	24.40	24.71	25.30	24.95	24.12	22.81	20.63	16.95	12.54	11.12	13.48	17.57	19.76	18.72	16.06	14.71	15.35	16.04	16.18	16.32	16.03	16.39	18.28	20.33	22.87	25.88	28.08	28.49	26.82	25.88	26.51	27.09	28.35	34.64	45.66	57.26	63.28	59.37	48.58	35.99	27.32	21.45	17.78	16.54	16.43	17.33	18.98	19.93	19.69	18.81	18.68	20.46	22.43	24.69	28.28	30.62	31.75	39.04	58.63	66.94	56.47	42.47	34.19	29.64	28.43	29.50	28.82	26.69	25.72	25.33	25.42	24.64	22.76	22.44	22.44	21.56	21.69	21.92	21.41	21.28
33.57	33.89	33.22	27.76	21.34	20.33	20.38	19.69	20.95	24.72	31.40	41.72	54.06	59.90	57.54	51.11	45.23	42.45	38.36	33.05	30.49	28.92	29.12	30.78	29.72	25.65	23.82	23.62	23.68	25.25	26.34	23.42	20.41	20.24	20.45	20.24	19.88	19.64	19.83	21.54	25.29	28.39	27.65	23.00	19.41	18.32	16.98	13.79	10.96	10.92	12.17	14.15	15.58	14.56	13.13	12.54	12.43	12.85	14.31	16.11	17.21	18.85	20.56	22.06	23.64	24.24	24.06	23.11	20.76	18.88	19.24	20.62	22.17	25.36	27.07	27.12	31.99	35.20	38.51	50.80	57.91	55.21	51.10	48.82	44.33	37.53	35.23	33.68	30.66	30.12	31.10	32.44	32.91	30.72	28.49	28.35	27.29	23.67	21.92	21.78	21.79	21.12	20.27	20.07	19.89	19.36	18.89	19.05	19.63	20.80	21.80	22.02	22.46	23.98	27.34	31.72	33.17	31.91	30.65	28.18	26.90	32.38	34.45	36.01	47.02	53.29	43.63	30.70	26.54	28.95	36.21	41.09	42.97	45.23	51.04	57.89	54.98	43.17	36.25	35.05	38.67	46.58	55.57	60.32	57.67	49.64	43.58	38.94	34.45	31.86	30.05	28.44	28.03	28.21	28.13	28.22	28.10	27.62	27.89	27.33	25.67	25.29	25.24	24.74	24.28	23.30	21.82	19.35	14.69	10.82	10.84	15.19	19.40	19.11	16.77	15.22	15.38	16.54	17.13	17.22	17.04	17.17	18.45	19.67	21.04	22.96	24.10	25.53	26.36	25.48	25.09	25.87	27.51	32.60	38.98	48.33	59.19	61.13	55.03	44.69	34.80	25.91	20.09	18.12	17.38	18.01	20.01	22.31	22.98	22.05	20.87	20.78	21.13	21.99	26.00	30.17	33.18	37.32	50.74	64.89	59.56	45.66	36.66	30.02	25.73	25.05	25.27	24.47	23.55	23.27	24.41	24.77	23.02	22.37	22.33	21.41	21.62	21.80	21.15	21.03
43.23	36.92	30.92	25.93	19.19	17.66	17.45	16.95	17.10	18.86	22.31	27.26	36.86	50.93	59.82	60.06	53.24	47.72	42.80	35.92	32.13	29.24	28.77	31.13	30.52	25.48	22.70	22.54	23.00	24.25	25.16	23.49	21.15	20.58	20.81	21.12	20.89	20.14	19.56	19.94	22.14	25.60	27.89	26.37	22.14	19.50	19.00	16.93	12.71	10.75	11.16	12.87	14.96	15.18	14.44	14.09	13.88	13.91	14.81	16.60	18.37	19.52	20.40	22.59	25.06	25.97	26.82	27.26	25.49	23.25	22.33	22.08	23.02	25.96	26.88	26.43	30.77	33.90	37.37	49.24	56.87	54.66	50.00	49.56	48.38	42.33	37.64	34.49	30.88	29.45	29.38	30.62	33.08	32.71	30.63	30.72	31.30	29.61	25.96	23.56	22.49	21.60	20.71	20.49	20.51	20.12	19.57	19.46	19.67	19.98	19.97	19.75	20.04	19.39	18.51	20.04	22.17	23.99	26.01	24.44	22.82	29.00	32.07	35.06	43.64	47.21	42.93	33.61	26.45	25.21	29.55	33.81	34.70	34.05	36.47	48.49	56.58	49.18	34.23	27.69	26.21	28.60	37.79	50.65	59.36	59.62	54.42	48.35	42.74	38.24	34.32	31.53	31.35	31.86	32.35	32.61	31.58	30.13	30.08	29.62	28.22	27.60	26.82	25.61	24.89	23.85	22.36	20.92	17.71	13.18	10.80	12.41	18.28	19.48	17.06	15.50	15.13	16.10	17.40	18.29	18.65	18.60	19.31	20.14	20.67	21.35	21.79	22.53	23.92	24.53	24.30	24.62	26.49	32.08	35.51	41.08	52.55	57.82	56.29	50.00	41.14	31.17	23.41	20.24	18.64	18.35	19.26	21.81	23.82	24.02	23.47	23.25	22.92	22.76	25.38	28.84	32.71	37.21	47.66	62.53	60.04	48.01	41.64	36.26	31.26	26.89	24.43	24.27	23.20	21.91	23.15	24.23	23.17	22.77	22.56	21.58	21.94	21.94	20.96	20.80
51.58	40.18	29.04	24.12	17.72	15.87	15.30	14.51	13.97	14.24	15.32	17.71	22.19	33.26	49.46	60.84	61.48	55.11	47.26	39.23	34.34	30.24	29.28	32.46	33.07	27.66	23.51	22.25	22.50	24.28	24.62	23.06	22.04	21.40	21.40	21.96	21.84	20.80	19.73	19.35	20.34	22.62	25.45	26.86	25.01	21.79	20.56	19.42	15.36	11.48	10.58	11.67	14.06	15.06	14.78	14.75	14.71	14.39	14.46	15.78	18.35	20.60	21.43	22.74	24.95	25.77	26.77	28.45	28.19	27.08	26.45	24.96	24.62	27.67	28.03	26.85	29.78	32.17	34.56	44.32	54.89	55.79	50.23	48.48	49.17	45.27	39.91	35.60	31.30	29.37	27.89	26.92	29.63	30.74	28.51	27.98	28.86	28.69	26.57	23.24	21.12	20.31	19.75	19.74	19.88	19.64	18.86	18.00	17.86	18.35	18.05	17.76	19.63	19.97	19.60	20.33	17.38	16.40	21.83	24.71	24.99	30.86	32.53	40.85	47.23	37.07	30.48	29.05	25.40	23.37	24.14	26.23	26.24	25.06	24.46	31.61	53.48	56.54	38.96	25.81	21.12	20.27	22.98	31.46	45.77	56.23	57.73	55.82	52.80	48.43	42.82	37.81	36.04	34.71	33.60	34.07	33.64	31.97	31.63	30.91	29.33	29.19	28.98	27.39	25.95	24.90	23.66	22.50	20.20	16.15	12.33	11.50	16.31	19.79	18.01	15.91	15.01	15.04	16.00	17.79	19.53	19.93	20.36	21.13	21.45	21.25	21.31	21.71	21.37	21.83	23.29	24.48	27.28	32.19	34.47	38.89	48.80	54.92	55.56	51.91	45.40	36.96	28.26	23.05	19.88	18.13	17.64	19.20	21.98	23.32	24.21	25.71	25.88	25.32	26.61	28.25	31.15	35.35	45.07	60.57	61.13	51.46	46.29	43.26	40.64	35.07	28.03	26.29	25.63	24.38	24.65	24.85	23.73	23.80	23.94	22.89	23.17	23.11	21.57	20.99
55.73	43.76	29.36	23.62	17.64	15.72	14.52	13.15	12.34	12.04	11.67	12.07	15.14	22.55	34.29	49.91	60.61	61.00	53.44	42.61	36.88	32.12	29.34	32.59	35.05	31.04	26.28	23.59	22.61	24.16	24.45	22.79	21.60	20.51	20.68	21.93	22.32	21.26	19.63	18.71	19.48	21.21	23.10	25.07	25.30	22.82	20.68	19.90	17.76	13.89	11.34	11.30	13.19	14.65	14.50	14.33	14.52	14.45	14.23	14.52	16.26	18.86	20.37	21.64	23.74	24.33	24.82	26.64	26.75	25.89	26.12	25.55	25.29	28.36	29.35	28.17	30.01	32.13	34.36	41.32	51.42	56.73	53.38	49.06	48.67	47.13	42.82	36.93	31.20	29.01	27.72	26.22	27.95	29.01	26.86	26.31	26.82	26.77	26.21	23.77	21.65	20.69	19.98	19.66	19.25	18.65	17.79	16.83	16.38	17.12	17.65	18.00	21.24	22.62	23.53	25.03	18.64	12.93	16.59	22.55	27.52	33.41	35.25	46.65	49.17	29.56	20.88	23.03	23.98	23.25	21.29	21.50	22.24	21.79	20.86	23.46	43.48	58.51	47.22	26.69	20.06	18.86	19.40	23.15	31.95	45.29	51.32	52.23	52.76	52.54	48.72	42.21	38.12	34.73	32.59	33.45	33.90	32.71	32.73	32.30	30.30	29.69	30.11	29.10	27.33	25.99	24.80	23.61	21.66	18.17	14.17	12.02	14.39	19.17	19.80	17.53	15.84	15.14	15.13	16.56	19.34	21.06	21.53	22.17	22.64	22.35	22.23	22.37	21.00	20.11	21.32	23.95	28.24	31.99	33.36	36.60	45.37	53.72	57.43	55.25	48.89	40.82	33.00	27.40	22.16	18.37	17.33	18.25	20.77	23.04	24.69	26.97	28.04	28.02	29.01	29.53	30.61	33.54	40.73	56.40	62.83	58.03	54.24	52.57	51.07	45.40	36.61	32.08	28.74	27.43	27.70	27.02	24.49	23.22	23.40	22.92	23.11	22.95	21.39	20.78
56.22	45.95	32.47	25.62	19.33	17.42	15.34	12.95	11.76	10.63	9.42	8.88	10.33	16.37	24.06	35.23	51.50	61.26	60.04	49.66	41.13	36.45	31.75	33.34	35.92	33.84	30.70	27.40	25.02	25.07	24.68	23.80	22.33	19.66	19.33	21.26	22.78	22.42	20.49	18.53	18.56	20.49	22.22	23.50	24.48	23.46	20.97	19.21	17.81	15.70	13.20	12.03	12.64	14.13	14.39	13.76	13.53	13.68	14.03	14.03	14.20	15.46	16.69	18.85	22.17	23.27	24.09	25.72	25.80	24.91	24.25	23.65	24.47	28.00	29.88	29.16	30.54	32.44	34.04	39.48	47.82	55.73	56.58	51.70	48.34	47.48	45.97	39.72	31.61	28.89	27.94	26.47	28.01	29.17	26.82	25.92	26.00	25.59	25.74	24.78	23.44	22.92	21.97	20.54	19.47	18.90	18.72	18.56	18.28	18.57	18.90	19.78	24.95	27.14	29.28	31.34	23.14	14.55	13.99	18.31	25.38	32.48	37.12	49.26	52.81	31.87	17.53	18.40	21.81	22.43	19.09	17.85	18.64	19.56	20.72	23.76	36.00	53.60	52.45	32.05	21.72	18.14	16.56	18.16	24.03	37.14	45.88	46.38	45.90	49.12	49.52	44.18	39.31	35.29	32.12	32.55	33.32	32.51	32.89	33.17	31.52	30.08	30.23	30.17	29.04	27.43	25.89	24.67	22.72	19.13	15.07	12.23	12.55	16.56	19.88	19.40	17.09	15.58	15.04	15.53	17.89	20.74	21.83	22.44	23.14	23.25	23.28	23.04	21.20	19.59	19.32	20.83	26.10	29.72	29.99	30.77	36.06	46.09	55.71	58.52	52.94	43.88	36.31	32.05	26.87	20.78	18.54	18.48	19.95	21.88	23.58	25.91	27.65	28.56	30.24	30.44	29.72	31.16	35.76	46.75	58.07	60.85	60.63	61.17	62.53	58.48	48.51	41.23	34.09	30.34	30.78	31.02	28.82	25.65	23.62	22.73	22.98	22.41	20.78	20.40
54.76	45.67	36.03	30.82	24.28	21.63	18.00	14.23	12.74	10.57	7.41	6.51	6.82	9.89	15.83	23.13	38.81	54.53	61.66	57.20	48.94	42.81	38.23	37.78	38.66	37.01	33.98	31.11	29.18	28.22	26.51	25.64	25.19	21.60	19.01	20.22	22.37	23.25	22.31	19.61	17.79	19.18	21.41	22.63	23.77	24.45	23.09	20.14	17.21	15.67	14.52	12.98	12.43	13.43	14.51	14.28	13.41	12.85	13.11	13.66	13.90	14.38	14.61	16.12	19.82	21.67	23.09	25.25	25.61	25.10	24.23	22.47	22.53	26.49	29.04	28.96	30.41	32.73	33.75	36.84	43.74	52.65	57.34	54.45	49.24	46.72	47.16	43.42	34.68	30.55	28.57	25.15	26.38	28.81	27.69	26.40	25.22	24.39	24.69	23.65	21.71	21.30	21.20	20.40	19.46	19.21	19.74	20.09	19.93	19.97	20.06	21.16	27.70	31.20	34.80	38.02	34.53	25.08	17.34	15.42	19.27	26.42	35.03	47.92	56.29	43.63	17.51	15.79	19.69	20.62	17.99	16.19	15.84	16.63	19.36	24.34	33.65	46.76	52.44	39.96	23.80	17.25	14.33	14.29	18.57	29.72	41.46	44.54	42.88	44.65	47.03	44.18	39.77	35.15	31.23	31.13	31.74	30.93	31.22	31.87	31.07	30.10	29.86	29.79	29.56	28.68	27.11	26.12	24.99	21.83	17.47	13.61	12.00	13.77	17.90	20.00	18.28	15.92	15.16	15.34	16.83	19.49	20.99	21.76	22.68	23.29	23.93	23.97	21.81	19.41	18.36	17.92	21.46	26.57	26.61	25.93	28.51	34.09	46.62	56.85	55.35	46.57	37.57	34.35	31.50	25.59	21.11	19.25	19.14	19.29	19.76	22.02	23.90	24.76	28.27	29.45	27.99	28.62	32.12	37.91	46.14	53.34	54.90	55.84	62.77	67.35	60.80	48.99	38.75	32.87	32.52	33.84	34.13	32.46	28.68	25.30	24.66	23.67	21.51	20.80
52.34	45.96	38.29	33.46	28.55	25.99	21.81	17.04	14.90	12.62	7.86	6.15	6.03	6.79	9.82	15.71	27.05	43.04	56.15	58.97	54.57	48.07	42.46	40.92	40.88	39.76	36.73	32.96	31.32	30.56	27.96	26.29	26.97	24.21	19.25	18.71	20.22	21.46	22.39	21.03	18.21	18.13	19.97	21.44	22.44	23.76	24.37	22.64	18.91	16.04	15.30	14.29	13.25	13.32	14.45	15.18	14.86	13.84	12.94	13.24	14.31	15.25	15.13	15.89	19.19	20.95	22.09	24.18	24.81	24.46	23.97	22.14	21.42	24.67	27.14	27.56	29.34	32.43	34.45	35.99	39.94	49.13	57.19	57.23	52.61	48.60	48.38	46.57	38.64	33.14	29.65	25.24	25.21	27.71	28.88	29.08	27.70	25.68	25.15	23.65	20.81	19.53	19.45	19.42	18.95	18.62	18.63	18.59	18.44	18.80	19.47	20.75	25.36	29.33	32.88	37.93	41.14	37.07	27.58	20.80	20.55	25.00	32.90	44.45	55.17	48.26	25.97	17.84	19.29	20.85	19.31	17.62	17.02	17.50	19.42	24.45	32.44	43.06	51.57	45.05	29.24	20.35	16.18	14.91	17.06	25.69	36.92	42.60	42.32	43.13	45.20	44.20	40.98	36.03	31.88	31.04	30.84	29.83	30.08	30.72	30.33	30.02	29.98	29.45	29.16	29.09	28.28	27.62	27.55	26.09	22.48	17.32	12.97	12.80	16.29	19.83	19.55	17.33	16.07	15.90	17.01	19.36	20.87	21.65	22.59	23.02	23.76	24.73	23.39	20.83	19.38	17.96	18.79	23.57	25.31	24.82	26.25	28.76	38.24	52.04	56.10	48.89	38.34	34.55	33.52	29.20	23.90	20.61	19.38	18.90	18.57	19.54	21.08	21.77	25.01	28.42	28.43	29.52	32.37	35.31	39.62	45.16	46.00	43.97	50.59	65.72	69.60	58.82	44.45	34.46	31.43	31.83	33.06	34.19	32.43	28.05	25.57	24.08	21.85	20.95
46.35	49.04	45.93	36.25	30.94	29.05	25.43	20.37	17.51	14.68	10.34	7.67	6.68	6.38	7.32	10.98	19.53	31.88	46.84	55.44	56.29	51.84	46.18	43.69	42.64	41.69	40.14	36.37	33.12	32.19	29.29	26.40	27.30	26.98	22.46	19.70	18.96	18.55	19.79	20.21	18.50	18.03	19.23	20.81	21.97	22.58	23.50	23.67	20.73	16.95	15.82	15.35	14.58	13.82	13.87	14.62	15.23	15.36	14.71	14.25	14.84	16.28	16.91	17.52	20.12	21.62	22.32	23.66	23.95	23.79	23.39	21.59	21.11	24.47	26.76	26.63	27.99	30.47	33.13	34.95	35.60	41.77	54.34	58.78	56.02	52.78	52.01	50.18	43.48	38.46	33.70	28.40	26.62	26.99	28.10	29.93	29.89	27.83	27.16	26.57	24.31	21.78	20.33	19.96	19.86	19.12	18.20	17.89	17.93	18.13	17.97	18.41	20.56	23.15	26.39	31.02	37.24	40.97	37.62	31.44	28.64	31.38	36.16	41.21	51.02	50.98	37.69	21.47	19.40	20.50	18.80	16.87	16.38	17.33	18.66	22.55	30.54	40.15	49.20	48.81	38.15	26.76	18.51	15.19	15.48	22.20	33.49	40.62	41.41	41.73	43.55	43.86	42.55	38.68	33.56	31.40	30.47	29.19	29.53	30.20	29.78	29.65	30.15	30.06	29.44	28.83	28.21	27.81	27.87	27.81	26.22	21.75	15.63	12.88	14.63	18.74	19.70	18.10	16.89	16.37	16.95	18.90	20.69	21.92	23.11	23.31	23.37	24.53	24.72	23.28	21.64	19.45	18.48	20.48	22.10	22.64	23.83	24.21	29.83	45.03	54.56	51.96	42.06	35.06	33.50	31.16	26.42	22.06	20.24	20.07	19.80	19.60	20.30	20.99	22.96	26.35	29.07	31.38	32.89	33.72	36.30	41.52	42.36	38.93	40.38	53.54	68.09	67.47	55.31	41.08	32.47	29.24	28.71	30.82	32.16	30.04	27.09	24.44	21.62	20.54
30.38	44.41	55.37	49.59	39.35	36.06	32.69	26.81	23.37	19.70	15.12	11.17	8.32	7.06	6.91	8.16	13.09	23.30	36.97	48.33	53.66	53.15	49.92	48.12	46.59	44.57	43.08	40.47	36.93	35.67	33.90	29.78	28.25	28.51	27.51	25.36	21.75	17.92	17.60	18.28	17.72	17.52	18.40	20.15	22.30	22.93	22.56	23.02	21.30	17.48	15.60	14.67	14.07	13.51	13.09	13.26	13.87	14.96	15.74	15.64	15.43	16.38	17.54	18.37	20.67	22.48	23.70	24.92	24.13	23.46	23.12	20.74	19.45	23.52	27.54	27.38	27.48	28.69	30.88	33.59	32.65	34.13	46.51	56.22	56.39	54.19	54.97	54.21	48.82	45.04	40.78	33.49	29.27	27.35	26.64	27.99	28.73	27.09	26.50	26.92	26.07	24.06	21.98	20.89	20.66	20.14	19.52	19.56	19.66	19.10	17.77	16.93	17.32	19.26	21.82	25.71	30.30	35.62	38.34	35.57	33.05	39.07	43.14	43.66	47.80	50.07	41.88	25.64	20.40	18.72	16.27	14.67	14.54	15.56	16.87	20.05	27.73	37.28	45.47	48.74	44.31	33.31	21.54	15.53	14.42	18.73	29.31	38.28	40.28	39.91	40.76	40.83	40.67	38.46	33.71	30.97	29.60	27.86	28.17	29.38	29.36	29.12	29.47	29.91	29.90	28.88	27.28	26.32	26.00	26.29	26.64	25.04	20.39	14.83	12.91	15.84	18.02	17.59	17.08	16.75	16.95	18.12	19.55	21.30	23.16	23.71	23.32	23.87	24.89	24.74	23.69	21.60	19.82	19.59	18.84	18.74	21.79	22.00	24.35	38.56	49.67	50.88	43.82	36.04	33.10	31.92	28.74	23.99	21.27	20.65	20.51	19.98	19.41	19.53	21.17	23.66	28.43	32.61	32.22	31.43	33.05	38.07	39.98	37.37	36.06	42.26	58.85	68.48	64.08	51.08	38.25	30.94	27.35	28.16	30.24	30.27	29.32	27.09	23.34	21.53
21.63	25.84	48.81	58.85	57.28	48.86	40.84	34.11	29.83	25.68	20.41	15.54	11.28	8.93	8.02	8.27	10.36	17.74	29.90	40.85	47.78	50.84	51.26	51.46	50.83	48.35	45.77	43.09	39.86	38.06	36.03	31.64	28.60	27.10	26.71	27.78	26.08	20.84	18.43	18.23	17.93	17.46	17.15	18.20	21.12	23.40	23.15	22.89	21.93	18.82	16.37	14.40	13.13	12.78	12.68	12.66	12.63	13.06	14.05	15.06	15.43	16.03	17.11	18.20	20.56	22.44	24.24	26.49	25.63	23.89	23.49	20.84	17.83	20.23	26.61	28.79	27.99	27.07	28.76	32.62	32.46	31.90	39.30	50.00	54.33	53.50	54.77	56.21	52.78	49.27	45.98	39.00	32.20	27.90	26.26	26.98	27.56	26.17	24.81	24.88	24.77	23.93	22.35	20.71	20.22	20.41	20.68	20.72	20.66	20.17	18.83	17.47	17.09	18.31	20.01	21.96	23.61	27.12	31.71	30.60	27.59	34.14	44.66	49.89	52.06	51.55	43.97	31.09	24.07	19.72	16.77	15.58	15.49	15.86	16.33	18.84	25.37	34.82	41.84	45.44	46.31	40.58	28.70	19.23	16.02	18.66	27.63	36.19	39.31	40.16	40.48	39.43	39.12	37.59	33.94	31.71	29.96	27.85	27.55	28.88	29.41	29.18	29.20	29.45	29.69	29.22	27.51	25.64	24.61	24.13	24.44	25.17	24.06	19.47	14.25	13.28	15.02	16.17	16.68	16.84	17.17	18.15	19.17	20.86	22.99	23.75	23.50	24.00	25.31	25.75	25.18	23.90	22.33	21.26	19.21	17.62	20.72	22.57	24.33	35.36	45.30	46.79	42.49	37.31	33.99	32.67	31.32	27.47	23.30	20.95	20.32	20.30	19.80	19.72	21.20	23.35	29.05	33.35	32.83	31.46	31.64	35.34	37.68	36.30	34.27	35.95	49.35	63.62	68.40	61.22	47.47	36.50	28.89	27.49	28.50	28.40	28.87	28.61	25.88	23.92
21.71	17.19	26.68	45.77	60.09	60.04	47.67	38.99	35.02	30.63	26.21	21.03	15.74	12.58	10.71	9.84	10.42	14.67	24.58	34.61	40.65	44.31	47.18	50.36	53.12	53.17	50.75	47.67	44.74	43.19	40.69	35.06	31.10	27.28	24.18	25.43	26.94	24.38	21.04	19.70	19.08	18.44	17.18	17.05	19.47	22.78	24.04	23.47	22.31	20.21	18.07	16.01	14.51	13.96	13.72	13.38	12.69	12.16	12.08	12.96	14.12	15.30	16.63	17.79	19.89	21.33	22.84	26.33	26.77	24.62	23.76	21.68	17.90	17.26	22.40	28.23	29.25	26.36	25.83	30.11	31.63	31.25	35.19	42.88	49.06	51.25	52.76	55.06	54.23	51.58	48.48	42.85	35.69	29.06	26.82	27.46	27.73	26.40	24.65	23.40	22.54	22.44	21.57	19.98	19.50	19.92	20.45	20.23	19.74	19.55	18.92	17.91	17.34	17.83	18.35	19.85	21.06	23.01	26.67	26.27	22.25	23.48	33.27	46.40	55.30	60.25	55.10	40.36	29.93	23.97	20.16	17.84	16.42	15.83	15.94	18.02	24.85	32.97	38.13	40.99	44.53	44.34	36.72	25.83	18.39	17.31	25.98	34.83	37.86	39.85	41.26	40.14	39.72	38.26	35.27	33.26	31.39	28.98	27.78	28.56	29.36	29.37	29.47	29.68	29.53	29.27	28.48	26.82	25.27	23.76	22.53	23.02	24.62	24.30	19.88	14.78	13.44	14.23	15.42	16.33	16.91	17.82	18.52	20.07	22.95	24.06	23.68	24.26	25.79	26.65	26.33	25.54	24.70	23.70	21.76	19.29	19.78	21.88	25.50	34.83	41.88	42.68	40.19	37.26	34.48	32.37	31.41	29.04	24.92	21.36	19.51	19.48	20.13	20.65	21.65	23.83	28.79	32.25	32.01	31.46	30.62	32.04	33.30	31.83	29.50	29.22	38.23	53.03	66.10	68.44	58.91	45.43	33.56	29.23	28.35	27.03	26.87	26.97	25.82	24.97
20.54	15.34	13.64	20.23	40.29	59.35	56.00	46.02	42.27	37.79	33.46	30.11	23.29	16.61	13.65	11.66	11.03	13.11	20.31	29.18	33.68	34.76	37.01	41.91	48.03	52.90	54.80	53.89	52.03	51.95	53.26	51.89	46.80	38.86	29.38	24.77	25.12	25.09	23.22	21.55	20.96	20.66	18.96	17.67	18.66	21.36	23.96	24.37	22.55	20.33	18.77	17.24	16.26	16.21	16.22	15.72	14.72	13.72	12.66	12.27	12.75	14.01	15.57	16.89	19.17	20.35	21.87	25.74	27.41	25.67	23.69	22.03	19.03	17.04	18.92	24.60	29.64	27.73	24.79	27.73	30.40	30.85	33.36	37.99	42.47	46.13	49.34	51.92	53.56	53.69	50.49	45.31	39.80	33.21	28.96	28.44	27.86	25.79	24.49	22.91	20.84	20.85	20.96	19.99	19.63	19.76	19.68	19.30	18.46	17.87	17.61	16.68	15.84	16.56	17.79	19.78	21.69	23.25	25.38	25.43	24.20	24.72	26.55	30.98	44.41	58.58	63.16	56.57	43.35	33.47	25.59	19.27	16.19	15.46	15.71	17.62	25.17	32.33	34.70	36.13	40.13	42.92	40.04	32.92	23.65	17.90	22.28	32.95	36.53	37.85	39.89	39.96	39.73	38.53	36.12	34.12	32.16	29.40	27.54	27.91	29.09	29.66	29.87	30.24	30.25	29.91	29.39	28.34	26.84	25.05	23.01	21.83	22.86	25.44	25.46	21.38	16.89	14.50	14.15	15.18	16.14	16.86	16.94	17.92	21.75	24.07	23.87	24.03	25.37	26.59	26.75	26.33	26.05	25.46	24.35	22.51	20.94	20.13	24.04	34.80	39.77	38.29	36.35	34.65	32.35	29.77	28.53	27.10	24.41	21.56	18.81	17.20	17.73	19.16	20.80	23.89	27.50	29.21	28.89	28.75	29.29	29.48	28.54	26.88	24.74	24.19	29.55	39.33	54.78	66.74	65.61	54.82	42.23	34.81	30.86	27.42	25.79	24.86	23.92	23.70
20.71	17.17	15.65	18.02	27.37	50.64	59.23	53.34	48.42	42.89	36.61	34.26	28.81	19.75	15.70	13.53	11.71	12.35	18.70	26.62	30.05	29.35	29.73	32.46	36.29	42.30	48.19	51.84	52.76	52.66	55.29	58.90	59.86	56.76	48.40	36.05	28.53	25.73	24.89	23.34	22.28	22.48	20.86	18.40	18.08	19.46	22.45	24.70	23.15	20.04	18.27	16.88	15.82	16.00	16.65	16.82	16.20	15.36	14.33	13.37	12.98	13.55	14.96	16.53	18.96	20.35	21.90	26.16	29.02	28.35	25.26	22.72	20.62	18.71	18.58	21.57	27.66	28.78	25.62	26.37	29.74	31.48	33.40	36.39	39.42	41.67	44.75	48.15	51.60	55.62	54.68	48.68	42.62	36.00	30.98	29.90	28.75	25.35	24.10	22.94	20.48	19.75	20.16	20.19	19.88	19.54	19.40	19.27	18.71	18.02	17.68	16.96	16.34	17.09	18.38	20.56	22.08	23.65	25.97	27.19	27.64	28.60	27.65	27.84	33.96	42.91	54.82	61.08	56.58	46.75	35.37	24.50	19.12	17.94	17.54	18.36	25.29	32.66	34.56	34.87	37.83	40.27	39.39	36.67	31.21	24.28	23.70	31.52	37.06	37.84	38.68	39.82	39.76	38.51	36.60	34.73	32.57	30.03	28.45	28.09	28.71	29.78	30.45	30.84	31.19	31.13	30.27	28.93	27.20	25.22	23.61	21.90	21.22	23.36	26.10	25.78	22.47	18.27	15.24	15.18	16.53	17.23	16.77	16.91	19.81	23.09	24.27	24.68	25.49	26.46	26.59	26.27	26.48	26.39	25.91	25.48	24.08	20.81	21.86	32.87	38.71	36.54	33.98	32.59	30.69	28.37	27.56	26.88	25.15	23.11	19.94	16.43	14.86	16.39	20.49	24.42	26.94	28.11	28.15	27.45	27.88	29.08	27.99	25.48	23.24	22.59	26.15	32.71	43.96	58.85	66.39	61.67	49.72	40.47	34.37	29.22	26.47	24.86	23.37	22.84
21.34	18.43	16.78	18.28	23.37	40.41	54.60	56.71	53.33	46.62	37.85	34.74	31.38	24.36	19.63	15.67	11.78	10.76	16.61	24.85	28.13	26.57	26.00	27.27	28.57	30.96	33.83	38.61	42.87	42.11	41.43	45.23	51.34	56.91	59.39	56.04	45.94	33.41	28.17	26.18	24.20	24.23	23.21	20.48	19.40	19.11	20.89	24.51	24.55	20.81	18.05	16.00	14.53	14.46	15.15	15.85	16.00	15.89	15.30	14.46	13.66	13.37	14.28	15.87	18.34	19.91	20.77	24.20	28.92	30.87	28.27	24.45	21.93	20.19	19.26	20.53	24.77	27.48	26.30	25.43	27.32	30.21	33.04	35.47	37.86	39.01	40.19	42.69	46.20	53.12	57.83	55.61	48.15	39.52	32.26	30.79	30.07	26.11	23.97	22.88	20.89	19.38	18.53	17.85	17.48	17.71	18.40	19.14	19.39	18.83	18.00	17.13	16.88	17.76	18.48	19.61	20.31	21.16	24.76	29.05	30.22	29.82	29.40	29.34	31.65	34.76	40.66	50.85	56.38	53.59	45.08	34.15	24.55	19.42	17.42	17.71	23.69	31.10	34.52	35.44	37.04	38.18	37.15	36.10	34.43	29.90	26.78	30.26	36.84	39.22	39.25	40.13	40.30	38.51	36.40	34.97	32.36	29.71	29.02	28.89	28.93	29.83	30.88	31.22	31.29	31.70	31.51	30.25	28.02	25.28	23.98	22.72	21.17	21.70	23.87	25.48	25.05	22.38	18.69	16.60	17.22	18.63	18.29	17.48	18.85	21.67	24.13	25.64	26.31	26.81	26.57	25.61	25.46	25.84	26.05	26.68	26.70	23.51	22.55	29.98	35.83	35.37	33.17	31.50	29.99	27.90	26.77	26.45	25.73	24.58	22.23	18.52	14.91	14.53	19.51	23.61	25.43	26.83	27.46	27.21	26.64	27.39	27.86	25.56	22.53	21.51	23.86	28.33	35.25	47.45	60.83	64.62	57.06	45.73	37.38	31.49	27.95	25.70	23.75	22.95
19.73	16.33	13.14	14.11	19.42	28.72	42.15	52.62	56.10	52.77	44.24	38.34	33.93	29.22	24.70	19.62	14.63	11.67	14.35	22.13	25.96	23.94	23.19	23.92	24.86	26.07	25.73	26.77	29.66	29.92	28.13	29.46	33.21	39.77	50.23	58.20	57.32	45.99	35.09	30.86	28.86	28.27	27.44	25.13	23.27	21.57	21.09	24.19	26.21	23.52	19.95	16.32	13.95	13.52	14.07	15.03	15.53	15.68	15.26	14.48	13.54	12.30	11.82	12.97	16.13	18.49	19.35	20.94	25.75	31.10	31.12	27.09	23.34	20.99	20.03	21.17	23.55	24.99	25.43	25.60	25.17	26.56	30.95	34.20	36.21	37.27	37.55	38.08	39.80	45.79	53.53	58.23	56.85	48.23	37.35	33.14	31.97	27.91	24.74	23.32	21.54	19.89	18.22	16.29	15.24	15.47	16.47	17.68	18.46	18.35	17.39	16.08	15.71	17.08	18.64	19.21	18.62	18.39	21.60	29.19	32.26	29.79	28.39	30.40	32.56	33.44	35.16	39.47	47.12	51.67	47.93	39.08	26.96	18.40	15.36	15.51	20.70	27.30	31.63	35.26	36.69	36.32	35.01	34.04	33.86	31.59	28.27	28.84	34.21	38.44	39.81	40.65	41.44	39.63	36.58	35.12	31.58	27.63	27.22	28.30	29.26	30.13	31.22	32.05	31.85	31.89	32.42	32.31	30.34	27.07	25.61	24.36	22.15	21.60	22.64	23.88	24.70	23.95	21.24	17.67	16.11	17.90	19.23	18.41	18.42	20.02	22.60	25.33	26.82	27.51	27.24	25.78	24.55	24.41	25.15	26.80	28.18	26.58	25.08	28.57	32.15	32.48	31.67	29.93	28.51	27.22	25.66	24.55	24.15	23.47	22.44	20.69	17.66	16.23	18.33	21.20	22.93	24.31	25.29	26.19	25.87	25.17	25.93	25.23	21.79	19.27	20.68	24.24	28.19	36.37	50.38	61.51	61.53	52.22	41.36	33.95	29.34	25.74	23.31	22.59
18.58	15.47	13.03	12.98	16.83	22.44	30.09	41.63	51.38	54.83	51.57	45.46	39.27	34.69	30.95	26.03	20.83	16.93	16.40	20.76	24.50	23.50	22.83	23.20	23.47	23.78	22.83	23.07	24.51	24.56	23.69	24.25	26.18	29.54	36.50	47.42	56.50	55.22	45.20	36.63	31.58	30.19	29.91	28.96	27.81	25.29	22.83	23.94	26.68	26.80	23.69	18.63	14.42	13.25	13.66	14.85	15.78	16.10	15.52	14.20	12.96	11.61	10.37	10.55	13.41	17.03	19.41	20.84	23.43	29.17	32.69	30.19	25.51	21.94	20.55	22.20	24.42	24.48	23.95	25.63	25.60	24.80	28.62	32.90	35.04	35.89	35.86	35.54	35.63	39.20	44.86	51.45	58.11	56.64	47.14	39.71	36.07	31.04	26.39	23.77	21.68	20.19	18.87	16.72	14.88	14.60	15.18	16.01	16.92	17.70	17.54	16.23	15.29	16.31	18.97	20.93	19.86	18.71	21.25	27.90	33.06	31.08	27.81	29.97	33.52	34.15	34.44	36.41	41.23	46.65	47.60	42.14	31.68	22.30	17.73	16.45	20.00	25.16	28.56	33.82	36.90	35.94	33.89	32.94	33.35	32.33	29.77	29.12	31.92	35.89	39.19	41.07	42.28	41.86	39.09	36.97	32.84	27.19	25.64	26.53	28.13	29.67	31.17	33.15	33.61	32.51	31.87	32.43	31.73	29.09	27.65	26.58	24.28	22.96	23.12	23.58	24.29	24.45	23.10	19.85	16.35	16.38	19.06	19.52	18.63	18.73	20.55	23.99	26.47	28.12	28.69	27.68	26.13	24.73	24.31	26.06	28.72	28.98	27.72	28.58	30.51	30.74	30.22	29.26	27.55	26.58	26.06	25.16	24.08	22.55	21.52	21.29	20.47	19.73	19.75	20.20	21.36	22.67	23.79	25.16	25.61	24.94	25.06	24.89	22.02	18.79	19.08	22.25	24.99	29.71	40.88	54.43	61.01	56.41	45.69	36.86	31.59	26.64	22.84	21.79
17.50	14.95	14.03	13.69	15.73	19.68	23.61	30.80	40.39	48.34	50.78	48.39	43.74	37.69	33.31	29.76	25.09	21.99	20.52	21.46	23.80	23.65	22.97	23.49	23.22	22.21	21.14	20.81	21.50	21.44	20.90	21.73	22.64	24.17	28.79	36.44	46.75	54.01	53.03	44.73	35.24	31.46	31.02	30.59	30.29	28.34	25.06	24.35	26.01	28.07	27.71	22.48	16.86	14.46	13.95	14.45	15.41	16.26	16.18	14.96	13.75	12.62	11.23	10.44	11.34	14.38	17.70	20.52	22.43	26.47	32.52	32.87	28.21	23.38	20.89	22.13	25.15	25.55	24.03	25.05	25.99	24.52	25.83	30.27	33.48	34.41	34.04	33.48	33.13	34.88	37.91	42.08	50.98	57.18	55.01	48.26	42.09	35.97	30.20	25.63	22.32	20.62	19.41	17.72	16.29	15.49	14.91	15.04	15.91	16.97	17.27	16.20	14.85	14.72	17.01	20.92	20.85	19.26	22.19	27.38	31.79	31.63	27.91	28.29	31.93	33.31	33.49	34.56	37.60	41.83	45.12	43.58	36.32	28.33	22.56	19.56	20.90	24.54	26.79	30.72	35.25	35.80	32.83	30.70	31.79	31.99	30.12	28.94	29.97	32.34	36.52	40.58	41.89	42.41	41.95	40.55	36.42	29.63	26.84	26.72	27.62	28.87	30.22	32.90	35.10	34.58	32.61	32.15	32.02	30.48	29.16	28.12	26.33	24.73	23.88	23.57	23.98	24.60	24.42	22.45	18.45	15.90	17.44	19.51	18.96	17.73	18.32	21.63	24.74	27.10	28.87	28.85	28.11	26.87	24.97	25.24	28.43	30.35	29.94	29.30	29.62	29.86	29.43	28.92	27.51	25.99	25.96	26.30	25.12	22.66	21.13	21.01	21.19	21.66	21.93	21.34	21.16	21.79	22.60	23.87	24.93	24.76	24.62	24.56	22.54	19.52	18.29	20.33	23.44	26.85	32.73	45.80	57.86	58.10	49.34	40.00	33.95	28.98	24.01	22.26
15.21	13.73	14.27	14.75	15.92	18.56	21.64	25.06	31.63	40.38	45.50	45.51	41.78	33.82	30.22	29.48	26.52	24.83	23.99	23.23	23.87	23.81	22.90	23.60	23.60	21.69	20.22	19.21	19.05	19.04	18.39	18.67	19.22	20.18	23.07	27.00	33.71	43.56	50.37	49.21	41.85	35.63	33.17	31.67	31.27	30.63	28.06	25.94	25.39	27.04	29.39	26.98	20.77	16.54	14.50	13.71	13.85	14.85	15.88	15.98	15.39	14.15	12.47	10.93	10.40	11.99	14.86	18.48	21.09	24.26	31.01	34.47	31.24	25.25	21.47	21.66	24.88	26.55	25.88	26.20	26.02	24.08	23.55	26.61	30.49	32.53	32.97	32.28	31.19	31.59	32.80	35.31	41.90	48.97	53.14	52.54	47.65	40.50	34.34	28.66	23.94	21.77	20.37	18.76	17.26	16.06	15.19	14.79	15.04	16.02	16.54	15.84	14.61	13.37	13.89	18.15	19.66	18.51	21.43	28.08	31.14	30.80	28.43	26.84	28.08	30.27	31.40	31.80	34.37	38.73	41.50	40.81	35.79	29.47	25.23	22.75	22.70	25.16	26.94	28.19	31.58	34.24	32.22	28.91	29.17	30.79	29.99	28.72	28.96	29.43	32.45	38.70	41.46	41.74	42.48	43.31	40.56	34.11	30.23	28.77	28.28	28.14	28.52	31.11	34.83	36.56	35.41	33.52	32.07	30.70	29.56	28.03	26.47	25.58	24.15	22.55	22.33	23.08	23.99	23.75	20.42	15.89	15.02	17.84	18.92	17.48	16.92	18.89	21.79	24.69	27.40	28.09	28.04	28.31	26.85	25.61	27.63	30.38	31.55	30.88	29.22	28.38	28.26	28.09	27.12	25.72	25.62	26.44	25.70	23.03	20.98	20.61	20.73	21.40	22.38	22.44	21.85	21.62	22.03	22.78	23.80	24.09	24.09	24.05	22.06	19.32	17.82	18.49	21.18	25.87	28.37	35.44	52.55	58.01	52.03	42.90	35.81	30.54	25.44	23.42
19.20	17.04	15.18	16.20	17.29	18.51	21.19	23.58	28.67	36.33	40.60	41.39	39.61	33.48	30.09	29.78	27.99	27.18	27.07	25.66	24.74	24.47	23.49	23.76	24.24	22.78	20.92	19.18	18.09	17.72	17.02	16.35	16.33	17.54	20.11	22.60	26.23	33.09	41.27	45.89	44.28	39.43	35.70	33.50	32.69	32.49	31.27	28.76	25.51	24.59	27.49	28.58	23.73	17.54	14.46	13.30	13.42	14.41	15.57	16.03	15.72	14.80	13.37	11.62	10.28	10.48	12.38	15.77	18.69	22.44	28.55	34.46	34.69	28.81	23.35	22.02	24.59	27.59	28.79	29.19	27.16	23.88	23.03	24.85	27.29	29.65	31.56	31.90	31.09	30.83	30.60	31.79	36.10	40.08	44.11	49.02	50.09	44.70	37.98	31.67	26.21	23.82	22.09	19.99	18.09	16.86	16.26	15.74	15.40	15.91	16.38	15.81	15.12	13.97	13.49	15.99	17.72	17.33	20.16	27.68	32.14	31.33	29.77	28.30	27.14	28.29	29.89	30.80	33.95	38.06	40.08	39.35	35.00	29.43	25.83	24.11	24.38	26.81	28.54	28.17	29.37	32.12	32.16	29.79	28.78	30.18	30.04	28.57	28.28	27.89	29.29	34.88	39.16	40.23	40.77	42.69	42.46	37.41	32.87	30.44	28.86	27.69	26.93	28.36	32.24	35.85	37.05	36.19	33.74	31.17	29.79	27.88	26.18	26.11	25.10	22.67	21.39	21.25	22.41	24.09	23.15	18.77	15.56	16.77	18.98	18.71	17.64	17.76	19.20	22.25	25.97	27.55	27.90	28.81	28.49	27.30	27.66	29.50	31.92	32.91	31.09	28.56	27.52	27.62	27.08	26.06	26.21	26.57	25.76	23.70	21.54	20.82	20.81	21.04	21.77	22.11	22.06	21.97	21.90	22.35	23.22	23.44	23.68	23.90	22.31	19.74	18.14	17.79	19.00	24.52	26.72	30.18	46.36	55.96	53.59	45.51	37.90	31.44	25.24	22.96
28.17	23.16	17.63	17.96	18.89	19.28	21.19	23.41	27.14	32.03	34.59	37.16	37.43	33.64	31.63	31.45	30.71	29.96	29.62	28.36	26.72	25.57	24.14	24.03	24.42	24.48	23.29	20.06	17.93	17.36	16.54	15.51	14.86	14.88	17.03	19.27	21.48	26.40	33.15	38.98	40.97	39.24	36.50	34.19	33.11	32.56	31.81	30.17	25.58	21.78	23.38	27.15	26.04	20.00	15.86	14.30	14.52	15.21	15.71	15.90	15.63	14.79	13.55	12.26	10.56	9.10	9.61	12.27	15.11	19.17	24.32	31.18	36.13	33.68	27.27	23.24	23.64	27.35	30.99	32.24	29.96	25.96	23.92	24.69	25.98	27.25	29.55	31.17	31.27	31.32	31.22	31.65	33.90	36.55	38.15	41.79	47.27	47.63	43.59	37.90	31.33	27.87	25.29	22.50	20.05	17.66	16.71	16.53	16.09	16.05	16.40	16.17	15.81	15.63	15.55	15.97	16.29	16.16	18.13	24.75	31.03	31.87	30.54	29.68	28.52	28.21	27.62	28.54	33.31	37.07	38.64	38.90	35.55	30.31	26.82	24.58	24.61	27.51	29.64	29.22	28.94	30.15	30.79	29.94	29.06	29.83	29.58	27.75	26.84	26.32	27.13	31.10	34.77	36.75	38.19	39.91	40.70	37.54	34.18	32.34	30.60	28.61	26.08	24.77	26.90	31.48	35.03	37.02	36.71	34.28	31.90	29.26	26.84	26.57	26.15	24.34	22.77	21.02	20.45	22.45	24.17	22.13	18.05	16.54	17.96	18.85	18.36	17.78	17.75	19.51	23.00	25.81	27.44	28.91	29.25	28.92	29.00	29.24	30.53	32.48	32.49	30.20	27.91	27.57	27.75	27.31	27.23	26.90	25.73	24.23	22.47	21.47	21.35	21.39	21.78	21.85	21.91	22.15	21.70	22.00	23.04	22.90	22.96	23.42	22.29	19.84	17.97	17.41	18.80	23.27	25.71	27.98	39.22	51.79	54.23	48.17	40.88	33.85	26.10	23.00
38.07	29.95	21.43	20.19	19.79	20.17	21.30	22.79	25.21	27.75	29.46	32.29	33.52	32.29	31.69	31.98	33.33	33.33	31.43	30.53	29.99	27.39	24.03	24.04	24.86	25.49	25.72	22.29	19.05	18.02	16.59	15.36	14.88	13.69	14.02	15.89	17.07	20.69	26.58	31.87	34.59	34.91	33.75	32.17	31.56	31.49	31.59	31.13	26.64	21.39	21.22	25.33	28.03	25.03	20.14	17.02	16.10	15.99	16.29	16.78	16.89	16.00	14.47	13.35	12.05	9.93	8.42	9.20	11.57	15.21	19.63	25.04	32.82	35.43	31.17	25.50	22.39	24.42	30.50	33.49	32.41	29.49	26.01	24.66	25.19	25.23	26.68	28.58	29.12	29.84	31.33	32.69	33.43	34.96	36.47	37.41	40.83	44.40	45.00	42.66	37.38	32.42	28.70	25.10	22.04	19.00	17.04	16.23	15.57	15.53	16.36	16.79	16.45	16.43	17.59	17.89	16.66	15.97	16.92	20.51	27.10	30.27	29.54	28.30	28.36	29.27	27.68	26.85	31.15	35.24	36.53	36.87	34.62	30.11	27.45	25.55	24.55	26.75	28.96	29.10	28.65	28.59	28.67	28.28	28.18	29.45	29.19	27.00	25.62	24.75	25.47	28.72	31.19	33.06	35.61	37.59	37.93	35.96	34.18	33.05	31.72	30.24	27.25	23.64	22.50	24.87	29.32	33.39	36.25	37.16	36.03	33.29	30.03	28.32	27.09	25.74	25.11	23.01	20.41	20.74	22.90	23.00	20.21	17.39	16.99	17.61	17.32	16.93	16.38	16.71	18.66	21.19	24.29	26.97	27.65	28.10	29.65	30.33	30.35	30.85	31.23	30.06	27.91	27.26	28.05	28.68	28.35	27.39	26.19	24.74	23.00	21.86	21.54	21.46	21.79	21.83	21.77	21.91	21.37	21.45	22.50	22.36	22.11	22.41	21.70	19.97	18.20	17.02	18.17	22.27	24.67	26.71	33.83	45.49	53.12	50.61	43.27	36.68	29.07	25.16
47.16	35.84	24.97	22.65	20.17	20.44	20.98	21.76	23.40	24.22	25.06	27.87	30.39	31.22	31.23	31.10	33.26	34.88	32.90	32.10	33.15	29.67	23.73	23.23	25.49	26.66	26.53	23.80	20.46	18.63	16.43	14.84	14.89	13.33	12.17	13.68	15.06	17.32	22.08	26.41	28.74	30.19	30.29	29.28	29.09	29.68	31.24	32.26	29.25	24.44	21.96	23.26	27.34	28.14	23.62	19.10	17.17	16.69	16.89	17.38	17.94	17.69	16.15	14.65	13.81	12.35	9.79	8.57	9.80	13.13	17.19	20.89	27.61	33.13	32.38	28.11	23.20	22.00	27.80	32.33	32.59	31.72	29.19	26.67	25.96	25.36	25.64	26.73	27.45	28.06	29.95	32.84	33.82	34.29	36.01	36.79	37.08	38.55	40.63	41.65	39.67	35.53	31.26	27.17	23.88	20.58	17.97	17.00	16.53	16.34	17.13	18.38	18.51	17.71	19.04	20.32	18.76	17.03	16.78	18.40	23.10	27.46	27.91	26.27	25.92	28.50	29.01	27.61	29.18	32.83	35.15	35.58	33.75	30.23	28.05	26.80	25.82	26.86	28.06	28.23	28.20	27.99	27.82	27.42	27.32	28.78	29.27	27.39	25.82	24.93	25.53	28.21	30.00	31.63	34.13	36.13	36.46	35.46	34.99	34.38	33.41	33.23	32.10	28.90	25.39	23.17	23.75	27.30	30.99	34.55	36.84	36.90	34.97	32.40	29.53	27.26	27.00	26.10	23.43	22.02	22.74	23.07	21.55	19.26	18.03	17.75	16.52	15.58	15.57	15.59	16.36	18.24	21.89	25.54	25.85	25.84	28.68	30.89	31.94	32.17	31.12	29.36	27.42	26.92	28.02	29.11	28.84	27.59	26.70	25.62	23.70	22.50	22.02	21.56	21.89	22.25	22.27	22.14	21.47	21.47	22.30	22.14	21.63	21.38	20.69	19.44	17.91	16.54	17.14	21.18	23.64	25.33	30.98	39.11	49.27	51.61	44.25	37.37	31.50	28.08
53.50	40.02	27.65	24.98	21.12	20.55	20.09	20.44	21.75	21.35	21.03	23.98	28.20	30.72	30.59	30.23	32.61	34.08	32.76	33.39	35.28	32.04	25.42	23.40	26.00	28.37	27.80	24.55	22.05	20.52	17.37	14.75	15.30	14.47	12.29	13.23	14.98	16.13	19.11	22.34	23.55	24.91	25.87	25.48	25.36	26.28	28.55	30.63	30.34	27.72	23.30	20.73	23.57	27.32	25.37	20.18	17.68	17.06	17.06	17.34	17.89	18.23	17.37	15.84	14.83	14.26	12.54	10.25	9.25	11.15	15.36	18.16	23.21	29.54	30.94	29.06	25.73	23.13	25.50	29.28	30.49	31.10	30.49	29.13	27.96	26.59	26.06	25.88	25.58	25.70	27.58	31.16	33.04	33.44	34.51	35.64	35.87	35.41	35.58	36.99	37.69	35.72	32.05	28.26	24.45	19.84	16.55	15.53	15.52	15.72	16.47	18.57	20.19	19.51	19.91	21.43	20.89	19.30	17.80	17.60	20.27	24.03	25.68	24.87	23.77	25.69	28.39	28.58	28.11	29.08	32.10	34.30	34.05	31.84	29.46	27.59	26.53	27.71	28.19	27.24	27.00	26.94	27.00	27.12	27.07	27.76	28.84	28.38	26.95	25.75	26.04	28.00	29.24	30.69	32.88	34.33	34.65	34.66	35.26	35.01	34.14	34.38	35.03	34.67	32.72	28.35	23.10	21.93	24.50	27.68	31.20	34.11	35.40	34.60	31.70	28.23	26.86	26.53	25.05	23.37	23.00	22.97	22.08	20.78	19.78	18.94	17.15	15.33	14.94	15.15	15.23	16.01	18.75	23.34	24.49	23.62	26.06	28.48	30.42	33.07	32.65	29.81	27.56	27.09	28.16	28.87	28.60	27.47	26.81	26.25	24.44	23.16	22.57	21.69	21.91	22.63	22.93	22.90	22.25	22.30	22.94	22.83	22.44	21.63	20.51	19.42	17.85	15.85	15.30	18.38	21.04	23.52	29.54	34.90	43.44	50.72	45.41	37.05	32.44	30.27
57.01	44.09	30.29	26.55	22.85	21.64	19.96	19.46	20.19	19.27	18.39	21.39	27.29	32.28	31.62	30.53	33.67	33.95	31.39	33.06	36.56	35.29	30.85	27.65	27.38	28.89	29.70	27.07	23.37	22.42	19.56	16.03	16.81	17.25	15.55	15.45	15.51	14.81	16.67	19.63	20.47	21.24	22.50	22.99	23.14	24.67	27.69	29.67	30.20	30.17	27.32	21.79	21.53	25.49	25.88	21.52	18.36	17.25	17.19	17.56	17.91	18.36	18.19	17.09	15.82	15.43	14.81	12.90	10.76	10.77	13.97	16.33	19.31	25.62	28.51	28.07	27.30	25.71	25.26	26.20	27.22	28.09	27.97	28.18	28.02	26.28	25.11	24.71	23.38	22.11	23.97	28.23	30.74	31.60	32.20	32.51	33.52	33.86	32.51	32.62	34.31	34.05	31.13	28.00	25.48	21.05	16.17	13.40	12.31	12.68	13.76	16.24	19.96	20.99	21.05	21.63	21.54	21.34	19.94	18.05	18.51	20.59	22.46	22.82	21.95	23.17	26.43	28.62	27.85	25.67	26.35	28.77	30.69	31.74	30.65	27.72	25.72	27.55	28.71	26.77	25.31	25.04	25.39	26.16	26.83	26.94	27.14	27.69	27.38	26.04	26.03	27.27	27.40	28.33	30.51	31.63	31.32	31.63	33.39	33.32	31.44	31.00	31.91	33.35	34.86	33.95	28.61	22.10	20.29	22.04	24.44	27.73	31.31	33.10	31.59	28.11	26.19	25.80	25.04	23.94	23.19	22.89	22.41	21.86	21.38	20.36	18.52	16.28	15.07	15.27	15.25	14.93	16.09	19.92	22.30	21.92	23.77	25.59	26.25	30.03	31.96	29.78	28.18	28.38	28.56	28.31	28.09	27.29	26.73	26.44	25.00	23.48	22.63	21.43	21.17	21.82	22.44	22.86	22.30	22.25	22.96	23.21	23.02	21.96	20.77	20.07	18.83	16.48	15.06	16.25	17.77	20.39	28.15	32.54	37.90	48.09	46.28	37.15	32.22	30.71
59.47	47.46	32.35	27.80	24.44	22.91	20.88	18.78	18.72	18.32	17.94	20.76	27.43	35.35	35.01	32.21	34.74	34.65	30.53	30.28	34.24	35.83	33.69	31.19	29.27	29.17	30.45	29.59	27.52	26.57	24.65	20.87	20.61	20.48	19.16	19.99	19.80	17.62	17.71	19.97	21.82	22.46	23.30	24.09	24.62	25.99	28.65	31.19	31.52	31.88	31.99	27.21	23.29	25.29	26.77	23.80	19.72	17.57	17.41	17.98	18.44	18.90	18.93	18.31	17.25	16.62	16.50	15.29	13.53	12.72	14.12	15.80	17.54	22.51	26.01	26.94	27.39	26.98	26.32	25.55	25.58	26.00	25.37	26.02	27.00	26.00	24.70	24.27	23.29	21.22	21.80	25.94	28.94	30.55	31.50	30.94	31.23	32.47	32.04	31.51	32.46	33.01	30.83	27.97	26.43	23.38	18.60	15.03	12.92	12.10	12.51	14.64	19.28	21.97	22.63	22.49	21.69	22.01	21.76	19.82	18.60	19.28	20.95	21.32	20.69	21.86	25.17	27.98	27.79	25.65	24.12	23.58	25.29	29.57	31.31	28.57	25.71	27.06	29.24	28.00	25.67	24.54	24.49	25.15	26.33	26.80	26.18	26.34	27.22	26.84	27.01	27.88	26.91	26.54	28.04	29.03	28.44	28.29	30.80	32.51	31.07	29.50	29.09	29.51	31.75	34.21	33.54	28.47	22.36	20.55	22.09	24.44	27.65	30.74	31.01	28.70	26.91	26.50	26.08	25.20	24.19	23.55	23.05	22.69	22.38	21.61	19.95	17.83	16.48	16.30	16.33	15.81	16.25	18.84	20.42	20.57	22.77	24.47	24.55	26.91	29.03	27.77	27.67	29.63	29.40	28.27	27.91	27.29	26.84	26.80	25.94	24.40	23.31	21.86	21.04	21.10	21.53	22.45	22.17	21.81	22.31	22.76	22.89	21.70	19.74	18.86	18.75	17.42	15.85	15.90	15.54	16.70	25.33	30.43	34.66	44.84	46.14	38.46	32.35	30.36
